# .PCD v0.7 - Point Cloud Data file format
VERSION 0.7
FIELDS x y z normal_x normal_y normal_z curvature
SIZE 4 4 4 4 4 4 4
TYPE F F F F F F F
COUNT 1 1 1 1 1 1 1
WIDTH 509
HEIGHT 1
VIEWPOINT 0 0 0 1 0 0 0
POINTS 509
DATA ascii
-0.029578462 -0.048333883 -0.0046992898 -0.94868326 -0.23774505 -0.2085121 5.5792203e+37
-0.025435081 -0.049279988 -0.0036552299 -0.38752767 -0.82349712 -0.41433674 inf
-0.017847849 -0.049336236 -0.0040563322 3.6073722e-08 -0.87280762 -0.48806435 inf
-0.01077646 -0.049443606 -0.0040794564 2.3759343e-08 -0.88054377 -0.4739649 inf
-0.0037062154 -0.049485799 -0.0037980673 2.2118828e-08 -0.89575636 -0.44454533 inf
0.0036802923 -0.049352981 -0.0041284282 0 -0.89020228 -0.45556542 inf
0.010546414 -0.049412739 -0.0041486169 2.2121448e-08 -0.88312334 -0.46914098 inf
0.017553881 -0.049499918 -0.003752812 2.3126431e-08 -0.89586592 -0.44432449 inf
0.024997158 -0.049381044 -0.0038952769 2.1600478e-08 -0.88896227 -0.45798036 inf
0.031515721 -0.049093124 -0.0036276069 0.87959701 -0.37058327 -0.29829037 inf
-0.030020881 -0.034959622 -0.0067757238 -0.97245848 0.073455311 -0.22119848 inf
-0.025875922 -0.034732018 -0.0081794253 -0.66719055 0.13987231 -0.73163682 inf
-0.017813703 -0.033583567 -0.010435759 0 0.1227737 -0.99243474 inf
-0.010695586 -0.034380887 -0.010513459 -0.035080638 -0.051501919 -0.99805653 inf
-0.0036452252 -0.034871843 -0.010578232 0.015439286 -0.013221429 -0.99979341 inf
0.0033541885 -0.034099657 -0.010645099 -0.033074751 0.0027606422 -0.99944901 inf
0.010916473 -0.034584831 -0.010891541 -0.030036101 -0.079275958 -0.99640006 inf
0.017925873 -0.03475472 -0.010393367 0.0091018844 -0.0069416719 -0.99993443 inf
0.024506371 -0.034551218 -0.010370388 -0.0078133 0.0096634198 -0.99992281 inf
0.031912241 -0.034801457 -0.0071987156 0.94155884 0.013758398 -0.33656746 inf
-0.029672299 -0.012983806 -0.0014558341 -0.78255343 0 -0.62258339 inf
-0.025104137 -0.01239833 -0.0015210923 -0.093626566 0.08077281 -0.99232548 inf
-0.017518084 -0.011319153 -0.0011473631 0 0.014704292 -0.99989188 inf
-0.010007496 -0.015443593 -0.0040668193 0.20381622 0.2849234 -0.93663102 inf
-0.0047633727 -0.016895814 -0.0036207396 0.41976693 0.45760503 -0.78383243 inf
0.0043711034 -0.016240703 -0.0028412915 0.16947187 0.51310754 -0.84142739 inf
0.010448532 -0.017312566 -0.0041366834 0.48022485 0.55100834 -0.68247628 inf
0.017347611 -0.013908077 -0.0034227162 0.24671172 0.30438027 -0.92004675 inf
0.025277734 -0.012183112 -0.0015560521 -0.084309012 0.068849199 -0.99405831 inf
0.030673204 -0.015473311 -0.0038608615 0.61133963 0.27908242 -0.74052465 inf
-0.029744249 0.010224324 -0.0012018735 -0.78694892 0 -0.61701816 inf
-0.024785152 0.01211129 -0.0010352323 -0.076027855 0 -0.99710572 inf
-0.017510727 0.011789507 -0.0010651419 0 0 -1 inf
-0.012131164 0.011876287 -0.0006276585 0.27567685 0 -0.96125031 inf
0.013229534 0.016342059 -0.00066713989 -0.51152354 0 -0.85926932 5.5792203e+37
0.0185233 0.012363909 -0.00094751338 -0.14909093 0 -0.98882347 inf
0.025019662 0.01260348 -0.0010929221 0 0 -1 inf
0.031398378 0.011444001 -0.00075065199 0.39654419 0 -0.91801554 inf
-0.030099561 0.035414714 -0.00086836668 -0.79597175 0 -0.60533392 inf
-0.024901206 0.03616672 -0.0010626233 -0.11570013 0.16333519 -0.97976273 inf
-0.017564371 0.036325466 -0.0010278475 0 0.16939121 -0.98554891 inf
-0.012567999 0.03423937 -0.00097506028 0.2257909 0.091292039 -0.96988881 inf
0.013234779 0.035862997 -0.00028848648 -0.36170173 0.70710677 -0.60759515 5.5792203e+37
0.01806088 0.035121288 -0.0010024646 -0.19542143 0.076407634 -0.97773838 inf
0.024959883 0.035613053 -0.00099999958 0 0.13715306 -0.99054986 inf
0.031628147 0.035829008 -0.00090495904 0.38968417 0.15452087 -0.90789288 inf
-0.030461641 -0.049482577 0.0065954099 -0.98766279 -0.15550666 0.018431131 inf
-0.02503016 -0.05018881 0.0086344415 -0.15787935 -0.9683606 0.19326617 inf
-0.017764421 -0.050205469 0.0090576252 1.179857e-05 -0.96926421 0.24602221 inf
-0.010659378 -0.050235447 0.0088495882 1.2022806e-05 -0.98427308 0.17665364 inf
-0.0036952819 -0.050139066 0.009176976 1.1392785e-05 -0.96101445 0.27649835 inf
0.0035001466 -0.050152197 0.0086386008 1.1354547e-05 -0.97604901 0.21755099 inf
0.010517083 -0.050301086 0.0083138971 1.2537482e-05 -0.99667501 0.081479542 inf
0.017757008 -0.050146502 0.0094145061 1.157108e-05 -0.95354199 0.30126032 inf
0.024973441 -0.050166063 0.0090135336 0.010200701 -0.97952145 0.20108144 inf
0.032049928 -0.049862247 0.0079297638 0.87572855 -0.46225268 0.1393628 inf
0.035956684 -0.0498491 0.0067893062 0.99827993 0 0.058626533 inf
-0.030472914 -0.035577189 0.0063483566 -0.99999875 0 0.0015786092 inf
-0.025857057 -0.035660747 0.01213601 -0.78122461 -0.017451599 0.62400609 inf
-0.01898285 -0.03907321 0.016619215 -0.39345947 -0.41020486 0.82275248 inf
-0.010569657 -0.045135479 0.017088898 0 -0.64214814 0.76658052 inf
-0.0034697864 -0.041028067 0.013796857 0 -0.80094057 0.59874386 inf
0.0034780055 -0.04429036 0.016797941 0 -0.74380499 0.66839659 inf
0.010634495 -0.045543112 0.017211955 0 -0.68441743 0.72909039 inf
0.017257804 -0.042724214 0.014681797 0 -0.67659861 0.73635197 inf
0.026590692 -0.037544228 0.016271759 0.62006927 -0.15642774 0.76879424 inf
0.032821696 -0.035420485 0.0091654984 0.96883559 -0.0018342334 0.24769787 inf
0.036001347 -0.035588048 0.0061445613 0.99994248 0 -0.010725638 inf
-0.030419031 -0.012588476 0.0065727183 -0.99975461 0 0.022153763 inf
-0.025473081 -0.011333901 0.01076454 -0.88756579 0 0.46068102 inf
-0.017885042 -0.011510178 0.0039792438 -0.14433971 0 -0.98952818 inf
-0.0097623337 -0.008027263 0.0021917999 0.41986856 0.021411382 -0.90733236 inf
-0.0034812891 -0.0092342235 0.0032536983 0.060940612 0.16426383 -0.98453224 inf
0.0036688482 -0.0079896264 0.0039657122 0 0.12403474 -0.99227792 inf
0.010520341 -0.0077154706 0.0032951194 -0.27633503 0.11817309 -0.95376831 inf
0.017075926 -0.0088390522 0.0014809525 -0.22260672 0 -0.97490835 inf
0.025608202 -0.010899246 0.0074888417 0.65817654 0 -0.75286365 inf
0.032678269 -0.011900232 0.0091817901 0.98125178 0 0.19273034 inf
0.03604985 -0.011501902 0.0058940588 0.99951923 0 -0.031003552 inf
-0.030300206 0.012550267 0.0064955624 -0.99967843 0 0.025357516 inf
-0.025427967 0.011863541 0.010356653 -0.90455598 0 0.4263548 inf
-0.01892394 0.01272365 0.0062242467 -0.39622274 0 -0.91815442 inf
-0.0097945593 0.012110977 0.0020517549 0.49655992 0 -0.86800236 inf
-0.0032933026 0.011971086 0.0047796923 0.066673413 0 -0.99777478 inf
0.0036292702 0.012209133 0.0048544286 0 0 -1 inf
0.010710523 0.012018545 0.0038489636 -0.34216568 0 -0.93963963 inf
0.017335422 0.012002451 0.0015952528 -0.31343696 0 -0.9496091 inf
0.026111254 0.011697705 0.0075193704 0.59008354 0 -0.80734223 inf
0.032667451 0.012251215 0.0090504708 0.97893864 0 0.20415491 inf
0.036000248 0.011479145 0.0058285315 0.99947631 0 -0.032359339 inf
-0.030291483 0.03617147 0.0066124159 -0.99173719 0.11989152 0.045643512 inf
-0.025195146 0.037555397 0.0098137688 -0.63707334 0.6690011 0.38285115 inf
-0.017935034 0.041828521 0.0083705736 -0.039203856 0.99847221 -0.038939595 inf
-0.01012612 0.039926931 0.006312279 0.38353348 0.79794359 -0.46496028 inf
-0.0035281619 0.039387874 0.0078519341 0.077365689 0.74762768 -0.65959644 inf
0.003518299 0.039241351 0.0079100011 0 0.75478935 -0.65596718 inf
0.010650442 0.038946994 0.0068626385 -0.29460871 0.70125026 -0.64919472 inf
0.017571898 0.041023459 0.0071471073 -0.15040122 0.9507249 -0.27111194 inf
0.025418377 0.040450159 0.0086530168 0.16414975 0.98616594 -0.023055723 inf
0.032349139 0.037269462 0.0092248488 0.91954666 0.30813792 0.24389526 inf
0.035994701 0.035675127 0.0058293832 0.99923432 0.024968596 -0.030120816 inf
0.00013795495 -0.047522366 0.019405723 0 -0.71107066 0.70312053 5.5792203e+37
0.021420002 -0.047638476 0.019254625 0 -0.71107066 0.70312053 5.5792203e+37
-0.023043402 -0.037765566 0.021153001 -0.60508424 -0.11585185 0.78768742 inf
-0.017643727 -0.034842636 0.022807697 -0.46440721 -0.13157764 0.87579292 inf
-0.010273867 -0.033750817 0.026330531 -0.44322491 -0.27184707 0.85419601 inf
-0.0037660338 -0.034480408 0.027778612 -0.14886935 -0.82950598 0.53829151 inf
0.0037627581 -0.035469681 0.027546255 0 -0.83890122 0.54428369 inf
0.010648491 -0.033608712 0.028337767 0.46231845 -0.59247673 0.65972191 inf
0.017978109 -0.035461254 0.024668455 0.25182974 -0.24411494 0.93647724 inf
0.024650935 -0.034556538 0.022301948 0.59806114 -0.031219313 0.80084223 inf
0.029105062 -0.032931879 0.020126803 0.71853584 0 0.69548988 5.5792203e+37
-0.023397058 -0.014044375 0.021573616 -0.67562419 0 0.73724622 inf
-0.017858695 -0.012213591 0.022096727 -0.56032193 0 0.82827485 inf
-0.0095833261 -0.011929986 0.029608829 -0.83470809 0 0.55069268 inf
-0.00605019 -0.011854977 0.031285293 -1 0 0 inf
0.011368909 -0.012037416 0.032625504 0.99832737 0 0.057813428 inf
0.01797742 -0.012592388 0.026539875 0.40668502 0 0.91356844 inf
0.024713369 -0.011944606 0.02246985 0.614586 0 0.78884983 inf
0.029510137 -0.016127042 0.019988917 0.73080224 0 0.68258935 inf
-0.023212632 0.012005939 0.020992393 -0.68543935 0 0.72812974 inf
-0.017870378 0.011257401 0.022094671 -0.56016839 0 0.8283788 inf
-0.0096759014 0.011819145 0.029381275 -0.85281473 0.020439487 0.52181357 inf
-0.0048851497 0.016776685 0.031985302 -0.75030047 0.65661925 0.0768134 inf
0.0039254767 0.022950942 0.033279538 0 0.99263066 0.12117939 inf
0.011349102 0.013493779 0.032564845 0.98206407 0.16236152 0.095857888 inf
0.018348163 0.011941903 0.025979627 0.40415031 0 0.91469258 inf
0.02452554 0.011392198 0.02281123 0.60496759 0 0.7962501 inf
0.02910538 0.01330173 0.020177431 0.71555907 0 0.69855231 inf
-0.023525098 0.035910584 0.020705523 -0.61730695 0.14455697 0.77332753 inf
-0.017825495 0.03272165 0.021868486 -0.39920914 0.25959331 0.87934262 inf
-0.010539161 0.032451719 0.024417626 -0.10614408 0.4200522 0.9012711 inf
-0.0034002117 0.032806017 0.02463573 0 0.51656067 0.85625064 inf
0.0037544644 0.033093669 0.024708638 0 0.54952967 0.83547425 inf
0.010660871 0.032609753 0.024742644 0.032374799 0.49739718 0.86691856 inf
0.017987916 0.033107396 0.024297452 0.18417583 0.36835673 0.91125876 inf
0.024678349 0.033140175 0.022178967 0.51278973 0.1723325 0.84103996 inf
0.029551035 0.028667748 0.020503161 0.73322821 0 0.67998266 5.5792203e+37
-0.0086854836 -0.027596505 0.047593072 -1 0 0 inf
-0.0040945769 -0.029135715 0.048174433 -0.40732619 -0.91324478 0.0083276341 inf
0.0037036282 -0.030046992 0.048019543 0 -0.99996346 0.0085466113 inf
0.010906093 -0.027980234 0.048078503 0.94076276 -0.3390488 0.0033590256 inf
0.014286856 -0.026557663 0.050255209 1 0 0 5.5792203e+37
-0.0088290656 -0.011826975 0.048274264 -1 0 0 inf
-0.0058374638 -0.011708663 0.048017621 -1 0 0 inf
0.011612823 -0.011787605 0.0486142 1 0 0 inf
0.014361568 -0.012293314 0.049267013 1 0 0 inf
-0.0087670218 0.011720252 0.048018519 -0.99961865 0.027436418 0.0031246752 inf
-0.0049141492 0.014898501 0.047853664 -0.75302964 0.65376049 0.074455403 inf
0.0035975103 0.021578388 0.048420187 0 0.99357718 0.11315641 inf
0.011346585 0.012701837 0.048048638 0.97314209 0.22872698 0.026049232 inf
0.014481469 0.011013254 0.04765825 1 0 0 inf
-0.0088487444 -0.027124897 0.066477545 -1 0 0 inf
-0.0039655725 -0.028115831 0.06611798 -0.34617248 -0.92779362 0.13915315 inf
0.0033747014 -0.02866552 0.067237146 0 -0.98805797 0.15408234 inf
0.010592379 -0.027405292 0.066497907 0.90610796 -0.41868931 0.060560893 inf
0.014358371 -0.025476912 0.069005899 1 0 0 5.5792203e+37
-0.0087462664 -0.012109702 0.067203388 -1 0 0 inf
-0.0058184187 -0.011566442 0.067391954 -1 0 0 inf
0.011613375 -0.01172386 0.067345388 1 0 0 inf
0.014427364 -0.011807632 0.067941122 1 0 0 inf
-0.008722906 0.010472307 0.066860326 -0.99948674 0.031829078 0.0036249459 inf
-0.0047409642 0.01386489 0.067080326 -0.69529527 0.71414667 0.080988809 inf
0.0033865576 0.019511299 0.0665095 0 0.99363816 0.11261996 inf
0.011132425 0.011833061 0.066991746 0.96271574 0.26877758 0.030610509 inf
0.014532223 0.0099704089 0.066923454 1 0 0 inf
-0.0087606274 -0.025559658 0.082058355 -1 0 0 inf
-0.0032896388 -0.025635276 0.08192201 -0.13223241 -0.9468016 0.2933965 inf
0.0035816515 -0.025610343 0.082504027 0 -0.95372337 0.30068564 inf
0.010181949 -0.025842221 0.081167422 0.61987704 -0.75055945 0.2289387 inf
-0.0088390931 -0.011863029 0.08622428 -1 0 0 inf
-0.0051949276 -0.013329867 0.087166011 -0.97364801 -0.21047078 0.087815598 inf
0.0035317459 -0.021968847 0.091044925 0 -0.92938024 0.36912376 inf
0.011411688 -0.012178845 0.0860909 0.99892098 -0.043199595 0.017047808 inf
0.014487478 -0.012921619 0.087355278 1 0 0 inf
-0.0087980153 0.0074851541 0.08604639 -0.97537947 0.21932252 0.023077518 inf
-0.0038953044 0.01284554 0.085526258 -0.89929008 0.43370527 -0.056366354 inf
0.0034077279 0.017697984 0.08729142 0.72797877 0.67312515 -0.13019039 inf
0.01113611 0.0097751403 0.085509107 0.9453488 0.32357365 0.04019649 inf
0.01460126 0.007897282 0.08535447 0.97014254 0.24253564 0 5.5792203e+37
-0.0022980426 0.029912209 0.08695662 -0.93939173 0.15980296 -0.30332521 inf
0.0035471059 0.030697063 0.089127712 0.25677118 0.95439899 -0.15228614 inf
0.0083220741 0.031358466 0.087895527 0.78903741 0.61292291 0.041777488 inf
-0.0075978488 -0.055956092 0.11388209 -0.38268757 0 -0.92387784 inf
-0.0068190694 -0.060164869 0.11380719 -0.38268751 0 -0.92387789 5.5792203e+37
0.012831141 -0.057991982 0.11407699 -0.041482691 0 -0.99913919 inf
-0.0080903936 -0.03365295 0.113909 -0.65199536 -0.050017603 -0.75657141 inf
-0.0029644258 -0.025887756 0.11259688 0 -0.60291249 -0.79780734 inf
0.0036030069 -0.026468653 0.11288845 0 -0.57573605 -0.81763554 inf
0.011548324 -0.032641567 0.11339182 0.36144391 -0.31559664 -0.87735802 inf
0.015282892 -0.030144736 0.11457008 0.4420087 0 -0.8970108 5.5792203e+37
-0.0084902775 -0.011253311 0.10641253 -0.99986863 0 -0.016208475 inf
-0.0047543342 -0.01421778 0.10479196 -0.82834262 -0.5313552 -0.17751135 inf
0.0033624033 -0.020365529 0.10535523 0 -0.95507699 -0.2963576 inf
0.011431092 -0.011896027 0.10523222 0.99421322 -0.10694557 -0.010133468 inf
0.015553494 -0.010858695 0.10691446 0.97667515 0 -0.21472253 inf
-0.0086599132 0.0089199906 0.10705149 -0.94758707 0.24041495 -0.21042667 inf
-0.0040527945 0.01224009 0.10544489 -0.93820012 0.328688 -0.10837304 inf
0.0034983102 0.017391982 0.10503665 0.99607259 0 -0.088539787 inf
0.011426382 0.0085957022 0.10519531 0.92703962 0.37246263 -0.043235753 inf
0.014655228 0.0075789592 0.10332423 0.98058069 0.19611613 0 5.5792203e+37
-0.014311552 0.043529153 0.11414871 -0.38265717 0 -0.92389041 5.5792203e+37
-0.0097159101 0.035301551 0.11377243 -0.38265705 0 -0.92389041 inf
-0.0026674145 0.031888891 0.10702738 -0.70833278 0.54847163 -0.44434619 inf
0.0036524842 0.030193279 0.10580676 0.3446309 0.90273261 -0.25749439 inf
0.0091584846 0.033411548 0.1074841 0.44331974 0.74197942 -0.50292552 inf
-0.01519988 0.059260327 0.11446965 -0.60872632 0 -0.79338026 5.5792203e+37
-0.0097161941 0.059768096 0.1137725 -0.38265702 0 -0.92389053 inf
-0.003837625 0.058937445 0.11319315 0.27793878 0 -0.96059877 inf
0.004192315 0.059364777 0.11347722 0 0 -1 inf
0.011929549 0.059609707 0.11357439 0.12258603 0 -0.99245793 inf
-0.015871227 0.076214612 0.11481935 -0.60872632 0 -0.79338032 5.5792203e+37
-0.0094805406 0.08273764 0.11353989 -0.38265705 0 -0.92389053 inf
-0.0032992288 0.082923077 0.11327776 0.65975368 -0.13700372 -0.73888767 inf
0.0043307221 0.083059348 0.11344388 0 -0.083045483 -0.99654579 inf
0.01201993 0.0832633 0.1134635 0.17011622 0 -0.98542398 inf
0.014652212 0.081145369 0.11464798 0.38270193 0 -0.92387193 5.5792203e+37
-0.0094019044 0.10102263 0.11366573 -0.38095438 0.094077609 -0.9197951 inf
-0.0031526659 0.10358164 0.11299487 -0.1479973 0.14416857 -0.97842336 inf
0.0035409548 0.10336289 0.11298081 0.064936556 0.16084717 -0.98484081 inf
0.010887654 0.10156722 0.11340448 0.26563558 0.10682545 -0.9581368 inf
0.01508224 0.097589433 0.11478668 0.3827019 0 -0.92387187 5.5792203e+37
-0.0075224275 -0.071726739 0.13373494 0 -1 0 5.5792203e+37
-0.0022516188 -0.071726777 0.13268077 0 -1 0 5.5792203e+37
0.0035462743 -0.071726799 0.13373494 0 -1 0 5.5792203e+37
0.0082900291 -0.071726859 0.13373494 0 -1 0 5.5792203e+37
-0.024063399 -0.057473432 0.13115138 -0.40098926 -0.032801684 -0.91549528 inf
-0.018844336 -0.056627892 0.13167723 0.59267962 0 -0.80543834 inf
-0.0096382853 -0.058353495 0.12289082 -0.86182618 0 -0.50720358 inf
-0.0042970516 -0.059271399 0.12592743 0.38381165 -0.089713372 -0.91904306 inf
0.0041469298 -0.061855633 0.12993957 0.2822178 -0.1907979 -0.94018573 inf
0.010935416 -0.059019811 0.12409109 0.8413775 -0.085800327 -0.53359365 inf
0.015894854 -0.057570495 0.12307319 0.99278009 0 0.1199486 inf
0.026275363 -0.05862638 0.13116385 -0.17567125 -0.023319637 -0.98417264 inf
0.030273091 -0.057589602 0.13221233 0.92388886 0 -0.38266075 inf
-0.024147818 -0.034593176 0.13044043 -0.6127575 -0.088629305 -0.78528535 inf
-0.01830953 -0.031150555 0.12644713 -0.11413056 -0.50373524 -0.85628557 inf
-0.0096632894 -0.035625044 0.12345129 -0.72188121 -0.34588218 -0.59937721 inf
-0.0039788983 -0.036851071 0.12402352 0.47181633 -0.20896716 -0.85657579 inf
0.0041578682 -0.03436505 0.12616462 0.29314375 -0.38373476 -0.87567937 inf
0.011190962 -0.036590271 0.1241307 0.89337188 -0.22586797 -0.3884204 inf
0.016748687 -0.032818787 0.12289476 0.70143783 -0.69589585 -0.15399316 inf
0.025411237 -0.030278761 0.12777315 0.53614515 -0.2481066 -0.80684036 inf
0.02958533 -0.033097606 0.13089441 0.90412146 0 -0.42727545 inf
-0.029000729 -0.020359516 0.13359824 -1 0 0 5.5792203e+37
-0.024263764 -0.011554458 0.12857015 -0.84601104 0 -0.53316534 inf
-0.017966183 -0.012253311 0.12094495 -0.69433194 0 -0.71965492 inf
-0.010867819 -0.012708652 0.11712082 -0.61366409 0 -0.78956723 inf
-0.0054158475 -0.012192824 0.1162551 0.98861533 0 -0.15046483 inf
0.0056307083 -0.01098901 0.1314353 0.98861778 0 0.1504491 5.5792203e+37
0.011871259 -0.012264587 0.11732816 0.6860562 0 -0.7275486 inf
0.017825827 -0.01227536 0.11961868 0.21286453 0 -0.97708172 inf
0.025294496 -0.011579338 0.12564656 0.79668349 0 -0.60439676 inf
0.029991567 -0.012217945 0.13033091 0.86868733 0 -0.49536085 inf
-0.028777553 0.018829707 0.13320424 -0.92387217 0 -0.38270122 inf
-0.024326164 0.011376858 0.12829614 -0.86742496 -0.033320572 -0.49645114 inf
-0.01797113 0.011444259 0.12071996 -0.66015124 0 -0.75113279 inf
-0.011124951 0.011324256 0.11695118 -0.65190947 0 -0.75829679 inf
-0.0044839485 0.014123857 0.11708804 0.3392303 0 -0.94070339 inf
0.0068567335 0.016923821 0.11686604 0 0 -1 5.5792203e+37
0.011542273 0.012484634 0.117184 0.24288887 -0.029413629 -0.96960807 inf
0.018009035 0.011747832 0.11952607 0.5368548 -0.026392344 -0.84326178 inf
0.0252172 0.010910198 0.12594716 0.80724049 -0.0067989659 -0.5901835 inf
0.029953308 0.013322178 0.12999633 0.88642734 0 -0.46286786 inf
-0.028904984 0.035093699 0.1334729 -0.92387211 0 -0.38270125 inf
-0.024427682 0.035233047 0.12775393 -0.87549841 0 -0.48322105 inf
-0.017979981 0.035851907 0.12083171 -0.65267801 0 -0.75763547 inf
-0.011094204 0.0364829 0.11730891 -0.42062232 0 -0.9072358 inf
-0.0039670677 0.038132861 0.11737918 -0.014759184 0 -0.99989104 inf
0.0035320004 0.039601743 0.11694171 0 0.039386686 -0.99922407 inf
0.010987987 0.035441823 0.11699066 0.083021648 0 -0.99654776 inf
0.018409608 0.035719078 0.11928387 0.56054801 0 -0.8281219 inf
0.025221184 0.035505552 0.12584285 0.79860175 0 -0.60185981 inf
0.030003494 0.035061184 0.13036032 0.90995306 0 -0.41471127 inf
-0.028565563 0.060211752 0.13316289 -0.92387217 0 -0.38270122 inf
-0.024420245 0.059303217 0.1282078 -0.87169814 0 -0.49004313 inf
-0.017870385 0.059827004 0.12109603 -0.65944952 0 -0.75174892 inf
-0.010933599 0.059500434 0.11747819 -0.43082097 0 -0.90243745 inf
-0.0040584486 0.059808597 0.11705193 0.14438586 0 -0.9895215 inf
0.0036181698 0.0595534 0.1170354 0 0 -1 inf
0.011185181 0.059332568 0.1167204 -0.019353697 0 -0.99981266 inf
0.01847069 0.059559099 0.11914181 0.56161666 0 -0.82739753 inf
0.025301974 0.059801236 0.12582147 0.8066873 0 -0.5909785 inf
0.03016657 0.059304416 0.1305583 0.90561825 0 -0.42409372 inf
-0.028643979 0.083581239 0.13307624 -0.92387217 0 -0.38270122 inf
-0.024474906 0.082999177 0.12840974 -0.874183 0 -0.4855966 inf
-0.017949423 0.083000615 0.12115888 -0.66858238 0 -0.7436381 inf
-0.011077845 0.083148859 0.11756257 -0.43748119 0 -0.89922762 inf
-0.0035466237 0.083062701 0.11691209 0.17485009 0 -0.98459512 inf
0.0037650007 0.082394384 0.1168595 0 0 -1 inf
0.011067945 0.082828678 0.11672384 -0.036838833 0 -0.99932122 inf
0.018614283 0.08309596 0.11905331 0.57460499 0 -0.81843084 inf
0.025319645 0.083280899 0.12595727 0.80342072 0 -0.59541178 inf
0.030338725 0.082920462 0.13074356 0.91349274 0 -0.40685499 inf
-0.028805614 0.098970659 0.1331154 -0.92387223 0 -0.38270122 5.5792203e+37
-0.023982098 0.10455247 0.12926196 -0.86407572 0.17537221 -0.4718239 inf
-0.017976306 0.10729872 0.12374843 -0.6924578 0.23358819 -0.68259704 inf
-0.010834371 0.10815034 0.1191482 -0.45219347 0.24332479 -0.85808742 inf
-0.0036955546 0.10947023 0.11737696 -0.20172194 0.25081137 -0.94678509 inf
0.0036808974 0.10930394 0.11710936 0.070978366 0.23011328 -0.97057194 inf
0.010976489 0.10867221 0.11790321 0.32129046 0.24472694 -0.91481209 inf
0.018137803 0.1077285 0.1208296 0.56066394 0.2362521 -0.79362512 inf
0.024977354 0.10687499 0.12739854 0.80530387 0.22255334 -0.54950494 inf
0.030216523 0.10143677 0.13113999 0.91013992 0.1198047 -0.39660075 inf
-0.01697403 0.12340461 0.13010345 -0.72946036 0.44341761 -0.52083433 inf
-0.010593168 0.12803441 0.12776247 -0.53921592 0.50138092 -0.67665607 inf
-0.0035873076 0.13044034 0.12604046 -0.26422215 0.54018217 -0.79899299 inf
0.0036367581 0.13074641 0.12536609 0.080761388 0.54206395 -0.83644736 inf
0.010759587 0.12968931 0.12684298 0.4173474 0.52134442 -0.74432594 inf
0.017580312 0.12582667 0.12889592 0.63793576 0.47694182 -0.60461926 inf
0.023400558 0.12199318 0.13136418 0.80350637 0.42358118 -0.4182781 inf
-0.0083750887 0.15369682 0.13374896 -0.79342383 0 -0.60866958 5.5792203e+37
-0.0025729355 0.15504692 0.13254681 -0.44500297 -0.054582462 -0.8938641 inf
0.0034469685 0.15514855 0.13223657 0.13816436 0.061958734 -0.98846936 inf
0.0089740884 0.15596348 0.13279833 0.53746605 0 -0.84328532 inf
-0.0097813457 -0.071726739 0.14480369 0 -1 0 inf
-0.0027787024 -0.071726769 0.14480369 0 -1 0 inf
0.003546274 -0.071726799 0.14480369 0 -1 0 inf
0.0097275041 -0.071726859 0.14552245 0 -1 0 inf
-0.024434738 -0.057989057 0.14552683 -0.85327309 -0.024666639 -0.52088046 inf
-0.017582005 -0.057757843 0.14508933 -0.56526572 -0.051499318 -0.82329977 inf
-0.011138034 -0.061399367 0.14308418 -0.9900443 -0.1366162 -0.033885919 inf
-0.0037179326 -0.070008062 0.14413173 -0.017181113 -0.99899155 0.041481134 inf
0.003847166 -0.070484772 0.14303111 0 -1 0 inf
0.011633326 -0.065143824 0.14352953 0.75902516 -0.65051979 -0.026548935 inf
0.016821818 -0.05930249 0.1439386 0.99978262 -0.019616392 0.007072737 inf
0.025241086 -0.057691183 0.14116119 0.19734961 -0.061938692 0.9783746 inf
0.029905537 -0.057304341 0.13998659 0.99997646 0 0.0068610348 inf
-0.029210966 -0.02651922 0.14316148 -0.98386991 -0.17888544 0 inf
-0.024803827 -0.032405499 0.14520316 -0.83469093 -0.46207422 -0.29963046 inf
-0.017750489 -0.03585726 0.14528786 -0.36676738 -0.648341 -0.66718483 inf
-0.011620189 -0.037515499 0.14295289 -0.99433547 -0.10628766 0.00013395227 inf
-0.0068051517 -0.043932199 0.15204562 -0.70708305 0 0.70713043 5.5792203e+37
0.012683118 -0.039460804 0.146403 0.99116343 -0.035474293 0.12781444 inf
0.017262226 -0.036644876 0.14364028 0.92404288 -0.34927839 0.15540037 inf
0.025810223 -0.034719516 0.14071679 0.13646127 -0.46624696 0.87406647 inf
0.030915717 -0.029737422 0.1422848 0.98392814 -0.097840793 -0.14937417 inf
-0.029106475 -0.011737817 0.14317201 -0.99883348 0 0.048287876 inf
-0.026044397 -0.012156175 0.14426155 -0.99975383 0 0.022186114 inf
-0.017658949 -0.012680312 0.14340417 -0.10429438 0 0.99454647 5.5792203e+37
-0.011677537 -0.011961566 0.13538268 -0.592691 0 0.80542994 inf
0.027558742 -0.012748911 0.13957536 0.19816546 0 0.98016852 inf
0.03102929 -0.011910941 0.14369777 0.99563593 0 -0.093322881 inf
-0.029141877 0.011742314 0.14349723 -0.99850214 0 0.054713074 inf
-0.026298845 0.011414591 0.14379905 -0.99984729 -0.017282564 0.002571855 inf
-0.011473894 0.0065751299 0.13552907 -0.56227612 -0.31622776 0.76409793 5.5792203e+37
0.01791966 0.0085677505 0.13978919 -0.15043254 0 -0.98862028 5.5792203e+37
0.027412007 0.011063221 0.14069724 0.81640041 -0.10171011 0.56845874 inf
0.031051185 0.011512 0.14385933 0.99950564 -0.025186526 -0.018818093 inf
-0.029167704 0.035203464 0.14406201 -0.99894083 0 0.046012681 inf
-0.026412144 0.03522988 0.14338633 -0.9993338 0 -0.036495637 inf
0.028254747 0.035694633 0.14060159 0.99497235 0 -0.10015001 inf
0.031132922 0.035232153 0.14351089 0.9999876 0 0.0049855998 inf
-0.02915968 0.058689792 0.14353757 -0.99967098 0 0.025651271 inf
-0.026430754 0.059040576 0.14396405 -0.99998707 0 -0.005096504 inf
0.02831996 0.060179938 0.14187536 0.99977803 0 -0.02106617 inf
0.03105996 0.059230503 0.14352454 0.99999923 0 -0.0012542749 inf
-0.029180005 0.082923219 0.14373602 -0.99920267 0 0.039923586 inf
-0.026476232 0.083033815 0.14378071 -0.99993563 0 -0.011344925 inf
0.028343141 0.078852959 0.14467889 0.9960106 0 0.089234248 inf
0.030927563 0.08290372 0.1436622 0.99997365 0 0.007259855 inf
-0.029299932 0.10106237 0.14407973 -0.9974966 -0.045190003 0.054391153 inf
-0.025481109 0.10752046 0.14355119 -0.97508037 0.22140892 -0.014011247 inf
-0.020676909 0.11692238 0.14233068 -0.91602415 0.39217475 -0.084254086 inf
0.026820399 0.11341436 0.14379837 0.93817687 0.34611112 0.0055928146 inf
0.030650368 0.10452356 0.14346828 0.98830211 0.15250416 0.0012005073 inf
-0.022813778 0.12120659 0.14296836 -0.90734893 0.41909078 -0.032876793 inf
-0.01790452 0.12729356 0.14368005 -0.86453384 0.50253683 0.0061584646 inf
-0.011148551 0.13685229 0.14330752 -0.74598408 0.66593933 -0.0057074637 inf
-0.0047040661 0.14056966 0.1427937 -0.14672533 0.90553182 -0.39810023 inf
0.0042109597 0.14165607 0.14099942 0.53610915 0.77534372 -0.33380985 inf
0.011904808 0.13948713 0.14389832 0.53282791 0.84617555 0.0090263644 inf
0.018103926 0.1330281 0.14345761 0.81936181 0.57324672 0.0058665364 inf
0.024137178 0.12392835 0.14368767 0.88777441 0.45993298 0.017837968 inf
0.028583288 0.12250182 0.14112884 0.89237106 0.4357776 -0.11735319 5.5792203e+37
-0.0086456463 0.15476993 0.14361577 -0.99951851 0.023494717 0.020268874 inf
-0.0042442894 0.15483454 0.14369868 0.74746007 0.65561044 0.10713675 inf
0.0040916 0.15420508 0.14411932 -0.68025059 0.66540098 0.30740964 inf
0.010335783 0.15498357 0.14350238 -0.14466621 0.91023391 0.38800246 inf
0.014828159 0.15349802 0.14285685 0.99857444 0.015685679 -0.05102025 inf
-0.0091036642 -0.071726739 0.1558724 0 -1 0 5.5792203e+37
-0.0022516185 -0.071726777 0.15692657 0 -1 0 5.5792203e+37
0.0030192004 -0.071726799 0.15692657 0 -1 0 5.5792203e+37
0.0082900291 -0.071726859 0.1558724 0 -1 0 5.5792203e+37
-0.024649089 -0.057652973 0.1552812 -0.78595072 0 0.61828923 inf
-0.019668778 -0.059629004 0.15567717 0.57664537 0 0.81699461 inf
-0.0096069584 -0.057804421 0.16387771 -0.98028147 -0.0066815978 0.19749324 inf
-0.0039691827 -0.059837334 0.1592855 -0.22239929 -0.089039788 0.97088134 inf
0.0038619258 -0.060867731 0.15728167 0.2786715 -0.12484403 0.95223743 inf
0.010251605 -0.059248928 0.16371581 -0.42471802 -0.036767215 0.90457875 inf
0.016600635 -0.058893889 0.16409713 0.59856814 0 0.80107188 inf
0.025606871 -0.058179904 0.1555337 -0.24111372 -0.023004068 0.97022414 inf
0.029813576 -0.057526868 0.15535747 0.92388892 0 0.38266075 inf
-0.024353972 -0.033409093 0.15641353 -0.82781774 -0.038521577 0.55967301 inf
-0.017924035 -0.028831312 0.16215073 -0.47165391 -0.52622443 0.70755243 inf
-0.0099311331 -0.036338642 0.16538191 -0.97056025 -0.23986632 0.021842238 inf
-0.0043042367 -0.035271943 0.16129297 -0.23917827 -0.33682323 0.91068321 inf
0.0044163354 -0.034889825 0.16057889 0.33531216 -0.40436763 0.85091281 inf
0.010531078 -0.036818869 0.16545048 -0.25003365 -0.12730463 0.95983166 inf
0.01739089 -0.029898133 0.16562423 0.38280329 -0.61055517 0.69331378 inf
0.02511405 -0.033719037 0.15759157 0.068459302 -0.086140595 0.99392813 inf
0.029489744 -0.035057094 0.15595751 0.92139018 0 0.38863882 inf
-0.023890287 -0.01132351 0.15845902 -0.90431803 0 0.42685929 inf
-0.017703358 -0.01187896 0.1660037 -0.66761059 0 0.74451065 inf
-0.010350974 -0.011609277 0.16910112 -0.12919386 0 0.99161929 inf
-0.0041488274 -0.011972065 0.16967495 -0.41441253 0 0.91008919 inf
0.0049260505 -0.013640071 0.16973369 0.4182651 0 0.90832502 inf
0.011376082 -0.012258204 0.17018236 0.75979108 0 0.65016735 inf
0.018044544 -0.011681311 0.16846023 0.46218222 0 0.88678497 inf
0.025061503 -0.011452173 0.16152915 0.71490091 0 0.69922578 inf
0.029733812 -0.011712934 0.15646718 0.91225255 0 0.40962827 inf
-0.029590696 0.020177066 0.15316826 -0.92387217 0 0.38270119 5.5792203e+37
-0.024063643 0.011961183 0.15858276 -0.88284975 -0.019380594 0.4692553 inf
-0.017836085 0.012518924 0.16594659 -0.66819537 0 0.74398583 inf
-0.010850171 0.011834342 0.16921048 -0.30795932 -0.055419147 0.9497841 inf
-0.0037644599 0.011312551 0.17105874 -0.33774528 0 0.94123751 inf
0.0043270192 0.01018369 0.17152509 0.093607679 0 0.99560916 inf
0.010995981 0.011316305 0.17059295 0.59828347 -0.034920081 0.80052322 inf
0.017881997 0.01221124 0.16865179 0.49369439 -0.0080755772 0.86959797 inf
0.025166122 0.011818876 0.16141483 0.75082821 -0.011670299 0.66039443 inf
0.030039283 0.012369622 0.15672682 0.91148871 0 0.41132504 inf
-0.029641261 0.035159986 0.15325008 -0.92387223 0 0.38270122 5.5792203e+37
-0.024236113 0.035690688 0.15869942 -0.86603194 0 0.4999887 inf
-0.017755507 0.035524305 0.16588943 -0.673154 0 0.73950225 inf
-0.010684824 0.036193948 0.17014213 -0.40526801 0 0.91419786 inf
-0.0033961528 0.035669785 0.17129467 -0.16813739 0 0.98576361 inf
0.0040467293 0.036137085 0.17148422 0.10707822 0 0.99425054 inf
0.01099276 0.035347831 0.1707646 0.30092403 0 0.95364815 inf
0.017672725 0.035808921 0.16882105 0.51847613 0 0.85509211 inf
0.025143165 0.035587166 0.16195497 0.7940926 0 0.60779691 inf
0.030259931 0.035681657 0.15590455 0.91445768 0 0.40468165 inf
-0.029721955 0.059139848 0.15338065 -0.92387223 0 0.38270122 5.5792203e+37
-0.024464756 0.059302632 0.15830596 -0.87182194 0 0.48982289 inf
-0.017758634 0.059338473 0.16599563 -0.67666435 0 0.73629171 inf
-0.010879024 0.05912542 0.17005903 -0.41736531 0 0.90873885 inf
-0.0035053901 0.059608955 0.17130959 -0.20001535 0 0.97979277 inf
0.0039769071 0.059548255 0.17153576 0.049862172 0 0.99875611 inf
0.011250742 0.059095614 0.17081 0.34867531 0 0.93724358 inf
0.018111447 0.059191875 0.16840452 0.53258866 0 0.84637427 inf
0.02508085 0.059022002 0.16175957 0.78537917 0 0.61901498 inf
0.030230591 0.058926243 0.15628612 0.90760505 0 0.4198249 inf
-0.029370483 0.086920775 0.15430352 -0.92387217 0 0.38270119 5.5792203e+37
-0.024393667 0.083074838 0.15832101 -0.8725372 0 0.48854759 inf
-0.017824011 0.082859181 0.16573805 -0.68121874 0 0.73207998 inf
-0.010943073 0.083441101 0.17011224 -0.43111506 0 0.90229696 inf
-0.0039083078 0.082836673 0.17111245 -0.21621037 0 0.97634685 inf
0.0037229829 0.08391384 0.17171237 0.049296848 0 0.99878418 inf
0.011243125 0.082703575 0.17085627 0.34051257 0 0.94023997 inf
0.017907962 0.082775757 0.16851494 0.54922742 0 0.83567286 inf
0.025233844 0.083307385 0.16175032 0.78635901 0 0.61776978 inf
0.030181987 0.082898408 0.15589425 0.91841727 0 0.39561304 inf
-0.029046111 0.097827017 0.15474755 -0.92387217 0 0.38270119 5.5792203e+37
-0.023864863 0.10437903 0.15770805 -0.86623257 0.1755242 0.46779513 inf
-0.017905513 0.10729678 0.16327272 -0.69254571 0.22792381 0.68442029 inf
-0.010998428 0.10773652 0.16818301 -0.45909837 0.23758365 0.85602725 inf
-0.0037902214 0.11045902 0.16984378 -0.20001923 0.29177132 0.93534046 inf
0.0036175712 0.10892847 0.17044392 0.067246653 0.26582238 0.9616738 inf
0.011013835 0.10907195 0.16919114 0.31556869 0.26262796 0.91183496 inf
0.017984912 0.10708959 0.16658705 0.56262362 0.22428077 0.79570901 inf
0.024867669 0.10651489 0.15996009 0.7960912 0.21977213 0.56386083 inf
0.029957747 0.1026106 0.15594971 0.90407842 0.14033756 0.40366769 inf
-0.021889251 0.11974392 0.15624309 -0.85284513 0.38449803 0.3532939 5.5792203e+37
-0.016983254 0.12317611 0.156709 -0.74258167 0.44622838 0.49945235 inf
-0.010657362 0.1274384 0.15944679 -0.5517453 0.49335167 0.67244422 inf
-0.003779629 0.13036162 0.16112478 -0.26224917 0.53626472 0.80227518 inf
0.0034519983 0.1301856 0.16203718 0.060558099 0.53836399 0.84053367 inf
0.010627296 0.12890778 0.1608426 0.38988194 0.51207465 0.76535726 inf
0.017648924 0.12555884 0.15831693 0.64005989 0.47588179 0.60320795 inf
0.023146564 0.12226235 0.15595679 0.78440166 0.42252868 0.45407426 inf
-0.0023054713 0.15510826 0.15455142 -0.35511765 0.082135469 0.93120629 inf
0.003410663 0.15454645 0.15456282 0.15069236 0.046105396 0.98750508 inf
0.0091043627 0.15484908 0.15426759 0.55419654 -0.32157728 0.76775932 inf
-0.0086784484 -0.057062604 0.17282046 -0.38268757 0 0.92387784 inf
-0.0064281127 -0.058181018 0.17295171 0.98861313 0 0.15047936 5.5792203e+37
0.010261778 -0.05984189 0.17313467 -0.11105833 0 0.99381393 inf
-0.0083943475 -0.035642356 0.17298539 -0.35248312 0 0.93581814 inf
-0.0032886625 -0.026638862 0.17372122 -0.12972426 -0.11043152 0.98538142 inf
0.0029566276 -0.026513299 0.17370607 0.043675955 -0.083676971 0.99553531 inf
0.010810686 -0.031909682 0.17326614 0.35970733 0 0.93306512 inf
-0.0079836883 -0.01126244 0.17322382 -0.24219626 0 0.9702273 inf
-0.003239891 -0.011181319 0.17393175 -0.18249577 0 0.98320663 inf
0.0033443987 -0.011804422 0.17412828 0.064981386 0 0.99788654 inf
0.0089772642 -0.012301949 0.17387088 0.43909732 0 0.89843947 inf
-0.0091026984 0.013755466 0.17308904 -0.35368007 0 0.93536651 inf
-0.0032147539 0.012149117 0.17401692 -0.17298113 0 0.98492509 inf
0.003852987 0.011883996 0.17407279 0.12446183 0 0.9922244 inf
0.0098044081 0.013234981 0.17356016 0.31741908 0 0.94828528 inf
0.015426229 0.019186774 0.17293972 0.38270107 0 0.92387223 5.5792203e+37
-0.0095410263 0.034717705 0.17296009 -0.38265628 0 0.92389077 inf
-0.0032520446 0.035853188 0.17397745 -0.15050128 0 0.98860985 inf
0.0038258408 0.035703823 0.174055 0.11069517 0 0.99385446 inf
0.010474875 0.035844214 0.17353065 0.28895888 0 0.95734155 inf
0.014968492 0.034525663 0.17295915 0.3827011 0 0.92387223 5.5792203e+37
-0.014479131 0.059370756 0.17269036 -0.60880578 0 0.79331928 5.5792203e+37
-0.0087175611 0.059635106 0.17341214 -0.38265628 0 0.92389083 inf
-0.0028575954 0.059443928 0.1738607 -0.13357779 0 0.99103832 inf
0.0037356792 0.059690844 0.17406346 0.1041363 0 0.99456304 inf
0.010181108 0.059209496 0.17356496 0.26279074 0 0.96485287 inf
0.016070515 0.060577203 0.17287157 0.3827011 0 0.92387217 5.5792203e+37
-0.0086051961 0.082873389 0.17339507 -0.38265628 0 0.92389077 inf
-0.0032571706 0.083043225 0.17378417 -0.13394453 0 0.99098879 inf
0.0032594262 0.083461776 0.17407824 0.056319486 0 0.99841273 inf
0.010157796 0.082607947 0.17365707 0.24466056 0 0.96960878 inf
0.01501444 0.077492088 0.17347373 0.3827011 0 0.92387223 5.5792203e+37
-0.0088222465 0.10039742 0.17309436 -0.38108453 0.090486817 0.92010146 inf
-0.0031049999 0.10231991 0.17361604 -0.14568205 0.13157147 0.98054355 inf
0.0033633793 0.10260685 0.17382278 0.057487309 0.14151786 0.98826516 inf
0.010133202 0.10180897 0.17346272 0.25065121 0.097081207 0.96319741 inf
0.016293764 0.099083483 0.17230678 0.3827011 0 0.92387223 5.5792203e+37
