# .PCD v0.7 - Point Cloud Data file format
VERSION 0.7
FIELDS x y z normal_x normal_y normal_z curvature
SIZE 4 4 4 4 4 4 4
TYPE F F F F F F F
COUNT 1 1 1 1 1 1 1
WIDTH 418
HEIGHT 1
VIEWPOINT 0 0 0 1 0 0 0
POINTS 418
DATA ascii
-0.011608611 -0.024865707 -0.0017603586 0 0 -1 -4.2925023e-38
-0.0018179119 -0.024915218 -0.0008177422 0 0 -1 -4.2925023e-38
0.0046496317 -0.024909198 -0.0011598654 0 0 -1 -4.2925023e-38
0.01119934 -0.024903178 -0.0015074722 0 0 -1 -4.2925023e-38
-0.025668256 -0.0074098418 -0.001235208 -0.038142014 -0.0047213868 -0.99926114 -4.2925023e-38
-0.019211683 -0.011034079 -0.001267249 0 0 -1 -4.2925023e-38
-0.011410669 -0.013381138 -0.0011859288 0 0 -1 -4.2925023e-38
-0.0041457945 -0.012502825 -0.0011131495 0 0 -1 -4.2925023e-38
0.0037935693 -0.012684545 -0.0011554378 0 0 -1 -4.2925023e-38
0.011949378 -0.012986968 -0.0012469741 0 0 -1 -4.2925023e-38
0.01956589 -0.01171741 -0.0010189059 0 0 -1 -4.2925023e-38
0.026708966 -0.0087238504 -0.0012993859 0 0 -1 -4.2925023e-38
-0.026018132 0.012431122 -0.00078533491 0 0 -1 -4.2925023e-38
-0.019732444 0.012119419 -0.0011840905 0 0 -1 -4.2925023e-38
-0.011545961 0.012267519 -0.0012436134 0 0 -1 -4.2925023e-38
-0.0040038731 0.012292375 -0.0011026424 0 0 -1 -4.2925023e-38
0.0034495578 0.012079877 -0.0012171795 0 0 -1 -4.2925023e-38
0.011598213 0.012524018 -0.0012939557 0 0 -1 -4.2925023e-38
0.019671695 0.011596108 -0.0011247568 0 0 -1 -4.2925023e-38
0.026973005 0.012048258 -0.0011729792 0 0 -1 -4.2925023e-38
0.031740427 0.007752955 -5.3495169e-05 0 0 -1 -4.2925023e-38
-0.025407961 0.033500034 -0.00099597778 -0.13041523 0.02142705 -0.99122792 -4.2925023e-38
-0.019709617 0.036436941 -0.0012227141 0 0 -1 -4.2925023e-38
-0.011523457 0.036932908 -0.0012380162 0 0 -1 -4.2925023e-38
-0.0036951976 0.036160287 -0.0011374644 0 0 -1 -4.2925023e-38
0.0037099242 0.036913984 -0.0012573081 0 0 -1 -4.2925023e-38
0.011870847 0.03717941 -0.0012165442 0 0 -1 -4.2925023e-38
0.019433586 0.03718096 -0.0011733704 0 0 -1 -4.2925023e-38
0.026101748 0.035671443 -0.0012147346 0.042862367 0.0070434506 -0.99905616 -4.2925023e-38
-0.024687985 0.052456785 -0.0019704874 0 0 -1 -4.2925023e-38
-0.019357158 0.057574596 -0.0013879375 0 0 -1 -4.2925023e-38
-0.011334514 0.058848716 -0.0012180542 0 0 -1 -4.2925023e-38
-0.0040785135 0.059587322 -0.0010429524 0 0 -1 -4.2925023e-38
0.002861473 0.059403647 -0.001323996 0 0 -1 -4.2925023e-38
0.011332425 0.059416983 -0.00126737 0 0 -1 -4.2925023e-38
0.019406408 0.059079733 -0.0010914499 0 0 -1 -4.2925023e-38
0.025174968 0.055046409 -0.0012797005 0.08933758 0.01468059 -0.99589324 -4.2925023e-38
-0.01634296 -0.025352111 0.012549398 -0.51720291 -0.8558628 0 -4.2925023e-38
-0.010871861 -0.024988884 0.012369502 -0.067418814 -0.99716896 -0.033297617 -4.2925023e-38
-0.0040974743 -0.024962969 0.011999524 0 -0.99934745 -0.036120992 -4.2925051e-38
0.0038950476 -0.024953248 0.011899083 0 -0.99975324 -0.022216737 -4.2925062e-38
0.011457811 -0.024991151 0.012538629 0.016555712 -0.99953192 -0.025724716 -4.292504e-38
0.016873153 -0.024731677 0.010930775 0.46213523 -0.88347876 -0.076787069 -4.2925023e-38
-0.032232612 -0.0027640602 0.016031647 -0.98960227 -0.13908316 -0.0366497 -4.2925023e-38
-0.026278013 -0.0082356585 0.011542436 -0.96218467 -0.25812638 -0.087013468 -4.2925155e-38
-0.019862069 -0.016810337 0.0092912512 -0.69996494 -0.61539996 -0.36239761 -4.2925146e-38
-0.012057514 -0.017138641 0.0059914719 -0.18577732 -0.5567199 -0.80966032 -4.2925104e-38
-0.0038851905 -0.016035439 0.004584833 0 -0.43232945 -0.9017157 -4.2925082e-38
0.0038278359 -0.015763981 0.0041369679 0 -0.40081885 -0.91615736 -4.292509e-38
0.011758094 -0.016044261 0.004653743 0.030358989 -0.41770995 -0.90807307 -4.2925087e-38
0.019840745 -0.017832613 0.0084103914 0.55659556 -0.67258769 -0.48767519 -4.2925138e-38
0.027691901 -0.010586384 0.010735845 0.92709458 -0.35273457 -0.12678318 -4.2925045e-38
0.033430256 -0.0025543608 0.01456958 0.98504907 -0.14543483 -0.092341848 -4.2925023e-38
-0.032727558 0.011677023 0.014915316 -0.99818182 0.031985432 -0.051088713 -4.2925023e-38
-0.028368331 0.012252736 0.010935176 -0.98694813 0.045219585 -0.15455958 -4.2925001e-38
-0.019508904 0.012132121 0.00091346295 0 0 -1 -4.2925031e-38
-0.011404405 0.012818077 0.0010163671 0 0 -1 -4.292502e-38
-0.0040322007 0.012388375 0.00078147126 0 0 -1 -4.2925023e-38
0.0036792564 0.012286548 0.00094134954 0 0 -1 -4.2925037e-38
0.011621621 0.01194649 0.0010412402 0 0 -1 -4.2925034e-38
0.01977306 0.012090829 0.00091012975 0 0 -1 -4.292504e-38
0.029168669 0.012343505 0.0060125897 0.89054543 0.039909381 -0.45314026 -4.2925141e-38
0.033684414 0.012122764 0.015203265 0.99414736 0.050716512 -0.095387653 -4.2925149e-38
-0.031758968 0.026199147 0.011326909 -0.50035733 0.86581904 0 -4.2925023e-38
-0.025604768 0.033727176 0.01188229 -0.98184884 0.18646486 -0.034691423 -4.2925155e-38
-0.021322766 0.039511811 0.0075862501 -0.80839378 0.1328178 -0.57346225 -4.2925138e-38
-0.011810951 0.036636356 0.0010870207 0 0 -1 -4.2925029e-38
-0.0040262491 0.035801556 0.00078871544 0 0 -1 -4.292504e-38
0.003965558 0.036350679 0.00090067036 0 0 -1 -4.2925043e-38
0.011878901 0.036112018 0.0010373869 0 0 -1 -4.292504e-38
0.020365328 0.037211347 0.0020760475 0.099278986 0.016314233 -0.99492592 -4.2925071e-38
0.027516408 0.036204379 0.011049086 0.98007214 0.17769852 -0.088779271 -4.2924959e-38
0.033157222 0.024979802 0.014675963 0.580051 0.81458014 0 -4.2925023e-38
-0.024481246 0.05330478 0.011199662 -0.98559165 0.16914269 0 -4.2925023e-38
-0.019754658 0.058775008 0.010804791 -0.89606708 0.429021 -0.11403807 -4.2925054e-38
-0.011829053 0.064939074 0.0088270167 -0.06008298 0.93610269 -0.34655714 -4.2925132e-38
-0.0039394586 0.06432315 0.0082449047 0 0.91013372 -0.4143146 -4.2925135e-38
0.0039574048 0.06396383 0.0075506405 0 0.86868459 -0.49536559 -4.2925135e-38
0.011574648 0.064630225 0.0082115587 0.0021808459 0.92348468 -0.38362914 -4.2925132e-38
0.020095047 0.061803211 0.0095799211 0.64822888 0.70186305 -0.29527551 -4.2925143e-38
0.025239043 0.055900827 0.011479405 0.97593486 0.2173446 -0.017679339 -4.2925129e-38
-0.016372094 -0.025353184 0.035067774 -0.51720291 -0.8558628 0 -4.2925023e-38
-0.010975055 -0.024988191 0.035031527 -0.11593708 -0.99312383 0.016235504 -4.2925023e-38
-0.0038687363 -0.024941305 0.034627751 0 -0.99122792 0.13216372 -4.2925051e-38
0.0039260341 -0.024946719 0.034772813 0 -0.99044478 0.13791002 -4.2925059e-38
0.011404237 -0.024959272 0.035076514 0.0058581252 -0.99540484 0.095576413 -4.292504e-38
0.017283589 -0.024682589 0.03419761 0.4866713 -0.8696202 0.08313746 -4.2925023e-38
-0.033811733 -0.0025446874 0.037126765 -0.86438727 -0.43941492 -0.24443649 -4.2925023e-38
-0.026569139 -0.0088899499 0.035044994 -0.92919409 -0.35994628 0.083886765 -4.2925149e-38
-0.019986065 -0.019265154 0.034791581 -0.73642415 -0.6647591 0.12559795 -4.2925124e-38
-0.012666054 -0.023529965 0.035394099 -0.29458907 -0.92704427 0.23196155 -4.2925023e-38
-0.0041146358 -0.024064146 0.035059508 0 -0.99227786 0.12403473 -4.2925023e-38
0.0035804652 -0.024060201 0.035149522 0 -0.95447999 0.29827499 -4.2925023e-38
0.01198595 -0.023939619 0.034472406 0.061620817 -0.99146432 0.11489773 -4.2925023e-38
0.019949816 -0.021653455 0.03515793 0.63001043 -0.77018327 0.099521898 -4.2925104e-38
0.027605468 -0.011536768 0.034969587 0.90673506 -0.41743892 0.059802234 -4.2925143e-38
0.034932025 -0.0025368817 0.036260385 0.85826606 -0.5008077 -0.11212037 -4.2925071e-38
0.039414149 -0.001883626 0.039587636 1 0 0 -4.2925023e-38
-0.034334142 0.012188643 0.037526514 -0.98380089 0.048186164 -0.17266709 -4.2925076e-38
-0.029144406 0.013216933 0.032263085 -0.98582268 0.15699042 0.059225138 -4.2925107e-38
0.030966993 0.012231607 0.028340131 0.93704253 0.15617377 0.31234753 -4.2925023e-38
0.03597166 0.012569002 0.035755504 0.98999327 0.083014354 -0.11411423 -4.2924978e-38
0.039384499 0.011901525 0.038401682 0.99940598 0 -0.034462277 -4.2925023e-38
-0.033551391 0.025241541 0.037000313 -0.061031383 0.97103322 -0.23101862 -4.2925023e-38
-0.025789065 0.033593297 0.034946792 -0.96978807 0.23494418 0.065668121 -4.2925155e-38
-0.02225174 0.041659586 0.03500827 -0.96516776 0.15880096 0.20792663 -4.2925096e-38
0.022953801 0.045074686 0.034882471 0.77053457 0.12661976 0.62469506 -4.2925023e-38
0.027524346 0.03654629 0.034794845 0.97823477 0.19647661 0.066734567 -4.2925006e-38
0.034421366 0.025300248 0.037557516 0.042152558 0.99800026 -0.047101356 -4.2925023e-38
0.039248478 0.025296241 0.037260145 0 1 0 -4.2925023e-38
-0.02446479 0.053598169 0.035922624 -0.98446047 0.17370306 0.025785329 -4.2925023e-38
-0.020019764 0.05889881 0.035060856 -0.93054694 0.32871446 0.16133536 -4.2925155e-38
-0.011772583 0.067524679 0.035446797 -0.35745713 -0.92577755 -0.1231268 -4.292511e-38
-0.0036726845 0.06765639 0.035565816 0 -0.99956053 -0.029645436 -4.2925104e-38
0.0038337887 0.067653865 0.035355449 0 -1 0 -4.292509e-38
0.011409686 0.067683168 0.035029843 -0.0017542515 -0.99999845 0 -4.2925104e-38
0.020386737 0.062718712 0.035272006 0.74884194 0.63164496 0.20064986 -4.2925146e-38
0.025249593 0.056112114 0.034451783 0.97678226 0.21403313 -0.0092830248 -4.2925124e-38
-0.016394323 -0.025476336 0.052102715 -0.46260029 -0.76550698 0.44721359 -4.2925023e-38
-0.010486446 -0.025023153 0.051197495 -0.065820567 -0.97216064 0.22488093 -4.2925023e-38
-0.0036227107 -0.025033429 0.051186077 0 -0.98744065 0.1579905 -4.2925023e-38
0.0035038043 -0.025006881 0.051000468 0 -0.96296406 0.26962993 -4.2925023e-38
0.011163316 -0.024996245 0.051176995 0 -0.97238725 0.23337294 -4.2925023e-38
0.016670963 -0.024861136 0.051210035 0.45894423 -0.88846505 0 -4.2925023e-38
-0.033746939 -0.0030942261 0.048658755 0 0 1 -4.2925023e-38
-0.026101148 -0.0093212072 0.051660404 -0.94320834 -0.23212177 0.23764983 -4.2925071e-38
-0.018771101 -0.011336288 0.057039581 -0.80322492 -0.31041586 0.50840127 -4.2925135e-38
-0.012559788 -0.016274927 0.060283739 -0.74762112 -0.60510445 0.2736991 -4.2925121e-38
-0.0042236261 -0.021034651 0.06071721 -0.22611155 -0.96558607 0.1285186 -4.2925065e-38
0.0039014886 -0.021304503 0.060708478 0.10624795 -0.99029726 0.089569531 -4.2925071e-38
0.012443078 -0.018421819 0.06104292 0.5845347 -0.78965992 0.18643056 -4.2925096e-38
0.019031852 -0.012365318 0.059085041 0.88540518 -0.35307792 0.30231389 -4.2925138e-38
0.02733404 -0.01002241 0.052858483 0.81328392 -0.24732292 0.5266884 -4.2925118e-38
0.034499459 -0.0026670296 0.048312586 0.089087084 -0.17817417 0.97995794 -4.2925023e-38
-0.034529328 0.010745924 0.048287161 -0.18428855 0 0.98287225 -4.2925023e-38
-0.02677173 0.012169039 0.051555008 -0.93841672 0.07867457 0.33642882 -4.2925113e-38
-0.019489422 0.012841929 0.061496049 -0.14093672 -0.10344136 0.98459977 -4.2925146e-38
-0.014203471 0.011399904 0.066922002 -0.7872892 0.34292588 0.51242328 -4.2925023e-38
-0.0046919934 0.023483584 0.068639986 0 0.85816407 0.51337558 -4.2925023e-38
0.0040691248 0.023414871 0.068431951 0 0.85816407 0.51337558 -4.2925023e-38
0.012892235 0.023350783 0.06874492 0.016342696 0.86009765 0.50986761 -4.2925023e-38
0.020436302 0.012052985 0.063359551 0.90491635 -0.052452415 0.42234489 -4.2925127e-38
0.027825855 0.013085171 0.055328704 0.79602605 0.021353962 0.60488552 -4.2925135e-38
0.03469944 0.011837061 0.049177289 0.063364469 0 0.99799043 -4.2925023e-38
0.039167695 0.00423491 0.049402334 0 0 1 -4.2925023e-38
-0.035160571 0.024941742 0.047505558 0 0.70710677 0.70710677 -4.2925023e-38
-0.025279522 0.032454405 0.049468063 -0.80513781 0.32051238 0.49902403 -4.2925023e-38
-0.020056978 0.036483508 0.054981548 0.50904888 0.73132288 0.45391196 -4.2925141e-38
-0.012105678 0.036271472 0.06164388 0.073208787 0.12636958 -0.98927808 -4.2925093e-38
-0.0038424395 0.035813294 0.062025685 0 0.099500276 -0.99503756 -4.2925073e-38
0.0038336085 0.035463806 0.062327594 0 0.14264698 -0.98977357 -4.2925079e-38
0.01164616 0.035926428 0.062494412 -0.0046514901 0.12741436 -0.99183869 -4.2925085e-38
0.020195168 0.036185823 0.059450451 -0.69488358 0.11880653 -0.70924032 -4.2925129e-38
0.026125962 0.034849435 0.052190777 -0.94233257 -0.080253296 -0.32491344 -4.2925118e-38
0.034241389 0.025274269 0.04762562 0 0.12403473 0.99227786 -4.2925023e-38
-0.024702936 0.055200636 0.04774195 0.98639894 -0.089213975 -0.13805099 -4.2925023e-38
-0.018691707 0.056056846 0.050989151 0.71687335 -0.38909468 -0.57853091 -4.2925057e-38
-0.011736412 0.058838069 0.053120252 0.058577318 -0.53068095 -0.84554505 -4.2925068e-38
-0.0040233769 0.058948778 0.053367924 0 -0.53600973 -0.84421182 -4.2925076e-38
0.0040396866 0.058401808 0.053754523 0 -0.53247488 -0.8464458 -4.2925071e-38
0.011455118 0.059073135 0.053177346 -0.0019207352 -0.54543418 -0.83815151 -4.2925068e-38
0.019652531 0.057547849 0.052331503 -0.51661134 -0.4660798 -0.7182495 -4.2925099e-38
0.024547657 0.053816095 0.05020304 -0.90878838 -0.21023162 -0.36042506 -4.2925023e-38
-0.016881814 -0.0053704893 0.080239378 -0.99318326 -0.076299556 0.088122159 -4.2925023e-38
-0.012410974 -0.011595743 0.081791013 -0.93368417 -0.34841135 0.082724407 -4.2925152e-38
-0.0040215389 -0.020042153 0.08182504 -0.32490575 -0.94563454 0.014545151 -4.2925096e-38
0.003978827 -0.020659141 0.081547141 0.14387245 -0.98959529 0.0013542902 -4.2925093e-38
0.012552837 -0.014722547 0.082953118 0.79865468 -0.59995341 0.046975061 -4.2925132e-38
0.017887875 -0.0079499437 0.081005007 0.9931581 -0.090320706 0.074021496 -4.2925129e-38
-0.017006343 0.0097690467 0.077227481 -0.95962083 0.08212696 0.26904109 -4.2925037e-38
-0.01256786 0.011971334 0.081721291 -0.90309566 0.35772875 0.23758851 -4.2925155e-38
-0.003748086 0.019526727 0.082258314 -0.01680791 0.96710455 0.25382328 -4.2925085e-38
0.0041519376 0.019735137 0.082186051 0.00042990191 0.96731138 0.2535913 -4.2925079e-38
0.012780697 0.014216983 0.082801528 0.65895969 0.70085841 0.27307448 -4.2925135e-38
0.017950747 0.010803994 0.079401292 0.96399701 0.057267021 0.25967357 -4.2925143e-38
0.023667216 0.016565084 0.070146598 0.82878137 -0.35273769 0.43439341 -4.2925023e-38
-0.010789533 0.025214732 0.070979111 -0.014513464 0.86877435 0.49499556 -4.2925023e-38
-0.0060459077 0.024728864 0.071673036 0 0.87405473 0.48582739 -4.2925023e-38
0.00057768822 0.025382549 0.070700586 0 0.85816401 0.51337558 -4.2925023e-38
0.0098564923 0.025027454 0.07141225 0 0.87405473 0.48582739 -4.2925023e-38
-0.016151689 -0.0048922547 0.099413037 -0.99450004 -0.05524845 0.088979155 -4.2925023e-38
-0.011752889 -0.0093695344 0.1052895 -0.98012549 -0.17954919 0.084356047 -4.2925155e-38
-0.0043099951 -0.019357692 0.10518911 -0.46933329 -0.88269293 0.024072247 -4.2925096e-38
0.0039124368 -0.020669488 0.10458846 0.1570833 -0.98758155 0.0027399024 -4.292509e-38
0.01268904 -0.012387858 0.10583829 0.91278607 -0.40650705 0.039670698 -4.2925146e-38
0.017162923 -0.0071395212 0.10451166 0.99438071 -0.089491591 0.056552932 -4.2925093e-38
-0.016063562 0.0027452197 0.098774858 -0.98801655 0.12442666 0.091330871 -4.2925023e-38
-0.011828482 0.0093983412 0.10524505 -0.94898617 0.31289724 0.038994007 -4.2925149e-38
-0.004086772 0.01706391 0.10573795 -0.03549023 0.99889416 0.030835195 -4.2925082e-38
0.0039119329 0.017191084 0.10540805 0.00062417472 0.99949467 0.031780083 -4.2925085e-38
0.012842142 0.011243888 0.10503185 0.79468995 0.60695934 0.0082594389 -4.2925141e-38
0.017105959 0.0091005163 0.10547512 0.96252149 0.27119026 0.0028824757 -4.2925099e-38
-0.010643227 -0.0086038057 0.12805907 -0.9829343 -0.16807623 0.074770309 -4.2925149e-38
-0.0046219942 -0.01801103 0.12899719 -0.6503374 -0.75788385 0.05170504 -4.2925113e-38
0.003900964 -0.020604063 0.1286675 0.18232426 -0.98314065 0.013866954 -4.292509e-38
0.012334961 -0.011517423 0.12909317 0.94715941 -0.31634098 0.053079564 -4.2925152e-38
0.016505584 -0.0058855582 0.12762463 0.98523057 -0.1649563 0.045935784 -4.2925023e-38
-0.011457549 0.0089125466 0.1284865 -0.96248287 0.2709448 0.014687943 -4.2925152e-38
-0.0043289941 0.015952317 0.12875983 -0.046290744 0.99843574 0.031356279 -4.2925082e-38
0.0038413915 0.016494274 0.12841047 0 0.99949342 0.031826049 -4.2925076e-38
0.012803246 0.011161363 0.12828512 0.73010802 0.68325013 0.010564545 -4.2925141e-38
0.017123757 0.0090095215 0.12919429 0.97641468 0.21588017 -0.0031931063 -4.2925096e-38
-0.0031564871 -0.025758792 0.16083238 0.44758603 0.70255643 0.55324608 -4.2925023e-38
0.0031918143 -0.026498614 0.16093673 -0.11161532 0.77227652 0.62540466 -4.2925023e-38
0.010528363 -0.024826178 0.16227429 -0.6787836 0.57270455 0.45963287 -4.2925023e-38
-0.010171387 -0.0081482334 0.15231022 0.98058486 0.18607342 0.061887499 -4.2925143e-38
-0.0050510517 -0.016909521 0.15206088 0.76936471 0.57622761 0.27575293 -4.2925127e-38
0.0041178144 -0.021041676 0.15115544 -0.22797473 0.87457323 0.42795929 -4.2925073e-38
0.012221462 -0.011319141 0.15240881 -0.95415729 0.27149907 0.12598471 -4.2925124e-38
0.016383184 -0.0041110492 0.15313233 -0.99187988 0.12517682 0.022473767 -4.2925023e-38
-0.011443753 0.0081458669 0.15182839 0.99015838 -0.13165128 0.047479615 -4.2925149e-38
-0.0040908786 0.017336825 0.15224563 -0.55921835 -0.73668981 -0.38021439 -4.2925107e-38
0.0044616302 0.017872525 0.15039745 0.64525872 -0.46479562 -0.60630536 -4.2925071e-38
0.01275706 0.011270058 0.15199363 -0.80219114 -0.58771771 0.1052487 -4.2925146e-38
0.017198404 0.0090759872 0.1522737 -0.99154645 -0.1296504 0.0051384084 -4.292509e-38
-0.0027398262 0.027150797 0.156014 -0.68687332 0.69812053 -0.20207126 -4.2925023e-38
0.0038032855 0.028997025 0.15737201 0.20210759 0.96452755 -0.1698208 -4.292502e-38
0.0092800092 0.026660893 0.15713167 0.83709496 0.53493792 -0.11451398 -4.2925023e-38
-0.02423645 -0.050716717 0.18393901 -0.74168885 0.62045795 0.2548129 -4.2925023e-38
-0.019004989 -0.053949833 0.18152268 -0.73306584 -0.4289453 -0.52784497 -4.2925051e-38
-0.011634897 -0.057392836 0.17859507 -0.48137057 -0.60996163 -0.62946749 -4.292509e-38
-0.0040112883 -0.059049949 0.17702512 -0.20132247 -0.69192159 -0.69333518 -4.2925099e-38
0.0040273145 -0.059062693 0.17671075 0.061497591 -0.68685097 -0.72419184 -4.2925104e-38
0.01178683 -0.058197584 0.17804882 0.33882815 -0.69290787 -0.6364544 -4.2925099e-38
0.01963185 -0.0553023 0.18055084 0.58340311 -0.61490232 -0.53059953 -4.2925071e-38
0.025631683 -0.051828779 0.18296416 0.83455324 -0.32455257 -0.44518149 -4.2925023e-38
-0.023960253 -0.036024421 0.18578036 -0.92103308 0.073204391 -0.38254309 -4.2925023e-38
-0.019338725 -0.036943574 0.18065402 -0.75029701 0.054946382 -0.65881354 -4.2925138e-38
-0.011699598 -0.036724329 0.17338952 -0.42173967 0.039725624 -0.90584624 -4.292511e-38
-0.0038498121 -0.036269851 0.1692569 0.49853724 0.72355092 -0.47742501 -4.2925101e-38
0.003984178 -0.037026804 0.16883402 -0.16029994 0.90409046 -0.39613685 -4.2925082e-38
0.011600454 -0.035913203 0.17184588 -0.28023657 0.25684208 -0.92493212 -4.2925113e-38
0.020090947 -0.037189193 0.17860411 0.6185866 0.02295392 -0.78538126 -4.2925121e-38
0.025643649 -0.037044208 0.18370628 0.83306807 0.0080247102 -0.55311233 -4.2925037e-38
-0.023983959 -0.01414202 0.18617404 -0.93919516 0 -0.34338385 -4.2925023e-38
-0.019422119 -0.011938795 0.18096866 -0.80443317 1.3517668e-05 -0.59404314 -4.2925135e-38
-0.011542068 -0.012167521 0.17144026 0.77269047 0.17246823 -0.61090428 -4.2925135e-38
-0.0064719412 -0.01831132 0.16781621 0.91423631 0.28100562 -0.29190382 -4.2925023e-38
0.013042521 -0.01426792 0.16961992 -0.9837749 0.16964249 -0.058381189 -4.2925115e-38
0.019478429 -0.011277973 0.17729463 0.48156691 0.031544253 -0.8758415 -4.2925135e-38
0.025417846 -0.01180773 0.18417378 0.85672212 1.7880895e-05 -0.51577818 -4.2925054e-38
-0.024084723 0.015393525 0.18462706 -0.96615255 0 -0.25797108 -4.2925023e-38
-0.019171149 0.012271372 0.18077654 -0.84325838 -0.020746799 -0.53710788 -4.2925132e-38
-0.012011304 0.010387424 0.17154089 -0.13518578 -0.19548257 -0.97134513 -4.2925124e-38
-0.0044910293 0.018681591 0.1684007 -0.84980035 -0.25205913 -0.46293142 -4.2925023e-38
0.0051529119 0.019263115 0.169395 0.91449076 -0.40447378 0.010373099 -4.2925023e-38
0.012730961 0.013026694 0.17030171 0.11103339 -0.66593784 -0.73769802 -4.2925101e-38
0.019527787 0.011050771 0.17668849 0.57842517 0.081607223 -0.81164312 -4.2925141e-38
0.025408819 0.012932467 0.18375029 0.90634584 0.02008014 -0.42205918 -4.2925031e-38
-0.025094306 0.032759085 0.18413456 -0.99818754 0 -0.060180336 -4.2925023e-38
-0.01911436 0.03688781 0.18020149 -0.86492646 0.0093564633 -0.5018115 -4.2925132e-38
-0.011595511 0.037094332 0.17372075 -0.52500302 0 -0.85110033 -4.2925099e-38
-0.0038771895 0.036501687 0.17039788 -0.31312931 0.093837366 -0.94506323 -4.2925082e-38
0.0036990044 0.035168625 0.16976158 0.10626832 0.30970249 -0.94487649 -4.2925073e-38
0.011389676 0.036575869 0.17219105 0.39716405 0.045557581 -0.9166162 -4.2925096e-38
0.019760823 0.037332542 0.17866646 0.76183295 0 -0.6477735 -4.2925118e-38
0.026155647 0.035092667 0.18306817 0.94603103 0.06369254 -0.31775558 -4.2925082e-38
0.033150073 0.030337775 0.18451667 0.99133813 0.03986099 -0.12513876 -4.2925023e-38
-0.024410933 0.053257667 0.18658443 -0.94286311 0 -0.33318037 -4.2925023e-38
-0.019127466 0.060195874 0.18157177 -0.8112008 0.056435388 -0.58203799 -4.2925127e-38
-0.011919433 0.061049487 0.17584568 -0.54271948 0.12293137 -0.83086908 -4.292511e-38
-0.0039047762 0.062013987 0.17303461 -0.20799968 0.12493046 -0.97011787 -4.2925093e-38
0.0038660648 0.060891341 0.17230879 0.063697055 0.24400732 -0.96767926 -4.2925085e-38
0.011810957 0.060869809 0.17451747 0.37125105 0.16506355 -0.9137432 -4.2925101e-38
0.019961476 0.0616607 0.18024403 0.73893899 0.14996329 -0.65687162 -4.2925127e-38
0.02534673 0.057111442 0.18429808 0.89921492 0.076913632 -0.43069333 -4.2925023e-38
-0.018384235 0.085685708 0.18362215 -0.70619285 0.2448137 -0.66434783 -4.2925054e-38
-0.01203549 0.085758477 0.1800352 -0.56987417 0.11424956 -0.81375092 -4.2925115e-38
-0.0039528757 0.086072408 0.17613749 -0.25892046 0.15705848 -0.953044 -4.2925104e-38
0.0040985695 0.085210331 0.17581062 0.080034591 0.10897854 -0.99081683 -4.292509e-38
0.011779463 0.085702159 0.17819516 0.43043849 0.15603721 -0.88903046 -4.292511e-38
0.019168755 0.086452544 0.18266541 0.6759333 0.30977508 -0.66869539 -4.2925107e-38
0.024779923 0.084555395 0.18390606 0.77134728 0.23426464 -0.59172922 -4.2925023e-38
-0.0168762 0.10367616 0.1855493 -0.86700302 0.12638429 -0.48200905 -4.2925023e-38
-0.011205843 0.10720778 0.18327171 0.89675498 -0.4003973 -0.18844754 -4.2925079e-38
-0.0041141179 0.10937543 0.18065302 -0.44617972 -0.34821138 -0.82442248 -4.2925115e-38
0.0039050821 0.10888571 0.18023194 0.16789612 -0.58057934 0.79670471 -4.2925104e-38
0.011876069 0.10851064 0.18216553 0.28868523 -0.16505009 -0.94309032 -4.292511e-38
0.018050792 0.10462338 0.18480009 -0.58393097 -0.096876651 0.8060022 -4.2925023e-38
-0.009812206 0.13319752 0.18594494 -0.66192883 -0.088472262 -0.74432719 -4.2925023e-38
-0.0035628343 0.13464686 0.18419255 -0.34335127 0.037377149 -0.93846303 -4.2925076e-38
0.004166171 0.13442677 0.18418187 0.11249734 0.016648402 -0.99351251 -4.2925099e-38
0.010994514 0.13384481 0.18484819 0.53207195 0.073230579 -0.84352642 -4.2925023e-38
0.015874892 0.13677955 0.18702093 0.79146212 0.069043003 -0.60730618 -4.2925023e-38
-0.0086763501 0.14744954 0.18562062 -0.58861417 0.25501508 -0.76713794 -4.2925023e-38
-0.0035794985 0.15076095 0.18501319 -0.34078225 0.32258767 -0.88306552 -4.2925023e-38
0.0035821302 0.15219599 0.18515357 0.10086412 0.35087302 -0.93097502 -4.2925023e-38
0.0105242 0.1493814 0.18538132 0.55702001 0.32129243 -0.76583278 -4.2925023e-38
-0.024619766 -0.051924154 0.19865321 -0.99963701 0.00083908153 0.026926689 -4.2925023e-38
-0.019811772 -0.056266498 0.19891305 -0.70672685 -0.70287818 0.080618761 -4.2925138e-38
-0.011805674 -0.0626963 0.19897316 -0.49216548 -0.87007898 0.027122086 -4.2925115e-38
-0.0039749239 -0.065281376 0.19951582 -0.20751594 -0.97530794 0.07557518 -4.2925107e-38
0.0039423686 -0.065718509 0.19944966 0.05790253 -0.99748707 0.040827144 -4.2925101e-38
0.011732624 -0.064052843 0.19943243 0.3461327 -0.93536144 0.072740115 -4.292511e-38
0.019712856 -0.05950452 0.1991325 0.62164229 -0.78321749 0.011453665 -4.2925121e-38
0.026061697 -0.053274203 0.19847809 0.83371747 -0.54905361 0.058781885 -4.2925113e-38
-0.024733273 -0.036870971 0.19975221 -0.99997509 4.4291271e-05 0.0070568067 -4.2925132e-38
-0.021927111 -0.036583532 0.19826835 -0.99955529 -0.0048391619 -0.029421953 -4.2925141e-38
0.023216819 -0.034660846 0.19160549 0.81552434 0.00018743303 -0.57872272 -4.2925023e-38
0.026820529 -0.036743112 0.19877528 0.99993765 3.020027e-05 -0.011170887 -4.2924992e-38
-0.024743415 -0.012140179 0.19987974 -0.99998593 4.5494613e-05 0.0052982545 -4.2925127e-38
-0.021972945 -0.012256181 0.19855028 -0.99976212 6.1430212e-05 -0.021810066 -4.2925143e-38
0.023117376 -0.013117756 0.19466673 0.96090329 0.00022712405 -0.27688423 -4.2925023e-38
0.026833529 -0.012094882 0.19919159 0.99999303 5.1826843e-05 -0.0037331353 -4.2924984e-38
-0.02476049 0.011939257 0.19975212 -0.99989241 6.6013308e-05 0.014664913 -4.2925129e-38
-0.02188658 0.012336977 0.19843888 -0.99986064 -0.0047315718 -0.016006313 -4.2925141e-38
0.023139812 0.00676395 0.19327086 0.98145008 0.00015848287 -0.19171812 -4.2925023e-38
0.026819957 0.012490682 0.19860627 0.99996591 -0.0018824253 -0.0080359112 -4.2924984e-38
-0.024766028 0.036176223 0.19979064 -0.99960577 7.066808e-05 0.028077789 -4.2925127e-38
-0.021935588 0.037075423 0.19845243 -0.99968857 0.0029489717 0.024776975 -4.2925141e-38
0.023176312 0.038791329 0.18716909 0.92202383 0 -0.38713315 -4.2925023e-38
0.026853863 0.036632098 0.19865711 0.997464 0.016806042 0.069159947 -4.2924987e-38
0.032921478 0.029987387 0.18871087 0.95729637 0.066590622 0.28133485 -4.2925023e-38
-0.024724649 0.061046455 0.19945286 -0.99987864 4.794565e-05 -0.015577782 -4.2925127e-38
-0.021685781 0.061085127 0.19832186 -0.99506968 0.095451809 -0.02693139 -4.2925146e-38
0.022606499 0.066743106 0.19372569 0.92074054 0.3314369 -0.20587952 -4.2925023e-38
0.026592245 0.061141249 0.19895412 0.99645329 0.081508473 -0.020907128 -4.2924981e-38
0.031367481 0.071946025 0.19811019 0.99145085 0 -0.130481 -4.2925023e-38
-0.024562774 0.084737659 0.19967529 -0.9638952 0.26562729 -0.018661346 -4.2925079e-38
-0.020854026 0.086234383 0.19859393 -0.9931618 0.10883887 -0.042234965 -4.2925057e-38
-0.014645555 0.089123607 0.19211388 -0.62226421 0.27126148 -0.73430544 -4.2925023e-38
0.022140309 0.088018902 0.19702314 0.99509257 0.001746367 -0.098932654 -4.2925115e-38
0.02561982 0.084392712 0.19921304 0.97878891 0.20349418 -0.023715077 -4.2925129e-38
-0.018471794 0.10709743 0.19924724 -0.99212587 0.084269442 -0.092654884 -4.2925141e-38
-0.013183408 0.11441093 0.19755311 0.15896118 -0.98250204 0.097062416 -4.2925121e-38
-0.0050321259 0.11949032 0.19773176 -0.58847106 -0.80412668 0.0841555 -4.2925023e-38
0.004575727 0.1196098 0.19824266 0.33596614 -0.78310955 0.52332234 -4.2925023e-38
0.012894293 0.11770099 0.19603696 -0.055879533 -0.98485529 0.16412657 -4.2925023e-38
0.02016467 0.10987953 0.19872114 0.63715929 -0.76761889 0.069205455 -4.2925034e-38
0.024763318 0.10402215 0.19954254 0.96646672 0.18177727 -0.18138137 -4.2925023e-38
-0.016295513 0.13310765 0.19891754 -0.99892402 0.024671717 -0.039268851 -4.2925023e-38
-0.012269434 0.13472009 0.19925894 -0.99921215 0.024760388 -0.031017041 -4.2924967e-38
-0.0053836172 0.13356254 0.1915397 -0.6335752 -0.19661166 -0.74828219 -4.2925023e-38
0.0050091124 0.13328706 0.19159044 0.24061154 -0.5961439 -0.76597553 -4.2925023e-38
0.01341166 0.13449861 0.19677238 0.94629264 -0.041422587 -0.32064679 -4.2925149e-38
0.017636187 0.13409565 0.20000315 0.99849015 0.035028249 0.042313609 -4.2925149e-38
-0.015856415 0.14715242 0.19919387 -0.97740901 0.21132244 -0.0038019912 -4.2925023e-38
-0.010641849 0.15319149 0.19934855 -0.91725689 0.39792904 -0.017095994 -4.2925143e-38
-0.0043097055 0.16116089 0.19844538 -0.79180074 0.59760147 -0.12619045 -4.2925121e-38
0.0044857962 0.16282317 0.19777279 0.44512394 0.85700166 -0.25963989 -4.2925146e-38
0.011792686 0.15671299 0.19929019 0.87545639 0.47982186 -0.057854354 -4.2925048e-38
0.017153833 0.15054117 0.19905163 0.94787836 0.31737924 -0.028231127 -4.2925023e-38
-0.0078797936 0.17082566 0.19852078 -0.99140084 0 -0.13086031 -4.2925023e-38
-0.0027252245 0.1722713 0.19992293 -0.43156907 0.90206891 0.0044538588 -4.2925023e-38
0.003659785 0.17326266 0.20004463 0.12880865 0.98728728 0.093124181 -4.2925082e-38
0.009483723 0.17195201 0.19938706 0.93772149 0.26447752 -0.22523339 -4.2925023e-38
-0.019089922 -0.05141373 0.21337682 -0.51818109 -0.62409019 0.58480757 -4.2925023e-38
-0.011452166 -0.054398708 0.21560615 -0.44050956 -0.59116745 0.67562741 -4.2925043e-38
-0.003795211 -0.055856895 0.21716985 -0.15437976 -0.69001949 0.70713514 -4.2925073e-38
0.0039240597 -0.05604241 0.2173391 0.062239327 -0.69690275 0.71445978 -4.2925073e-38
0.011674319 -0.055246323 0.21633305 0.28238228 -0.6611743 0.69506025 -4.2925068e-38
0.019413603 -0.052904263 0.21399418 0.43509623 -0.62680119 0.6463834 -4.2925023e-38
0.025847264 -0.051065471 0.21235943 0.7936486 -0.36566046 0.48622441 -4.2925023e-38
-0.023919169 -0.035189133 0.21240366 -0.94141573 0.00077653711 0.33724722 -4.2925023e-38
-0.01957852 -0.036632597 0.2166992 -0.85077852 -0.021624636 0.52507937 -4.2925141e-38
-0.012030802 -0.037459571 0.22355977 -0.51054943 -0.18740696 0.83917701 -4.2925127e-38
-0.0040328111 -0.037192538 0.22694525 -0.21405393 -0.13901424 0.96687949 -4.2925115e-38
0.0039705802 -0.037529998 0.22764263 0.042175774 -0.18890245 0.98108971 -4.2925113e-38
0.011842581 -0.037702106 0.22545773 0.34587881 -0.20595479 0.91539633 -4.2925115e-38
0.019844888 -0.03710464 0.22025496 0.70376873 -0.12770966 0.69885606 -4.2925141e-38
0.025455458 -0.036355142 0.21383736 0.91061461 0.00090644846 0.4132556 -4.2925093e-38
-0.024311084 -0.013822353 0.21180151 -0.94581079 0.00071362051 0.32471725 -4.2925023e-38
-0.019600801 -0.012671538 0.21660396 -0.85503322 0.0010429296 0.51857221 -4.2925141e-38
-0.01212815 -0.011925444 0.22411655 -0.55641246 -0.020635437 0.83064997 -4.2925118e-38
-0.0039888048 -0.01224698 0.22732833 -0.19928566 -0.0069998852 0.97991645 -4.2925113e-38
0.0038728511 -0.012273978 0.22810738 0.064490907 -0.026016098 0.9975791 -4.2925093e-38
0.011768183 -0.012128435 0.22617935 0.31721634 -0.026821982 0.94797379 -4.2925121e-38
0.019959539 -0.01233907 0.22055019 0.74052763 -0.0094227241 0.67195976 -4.2925138e-38
0.025423076 -0.012851855 0.2137983 0.90999454 0.00093996822 0.41461909 -4.2925085e-38
-0.024199417 0.013943483 0.2120655 -0.94406176 0.00081858004 0.32976782 -4.2925023e-38
-0.019564837 0.012305252 0.2165301 -0.85907477 0.0010611343 0.51184905 -4.2925138e-38
-0.012032933 0.01172909 0.22401814 -0.50351375 0.033927374 0.86332083 -4.2925121e-38
-0.0039978111 0.012163266 0.22664861 -0.15401979 0.073888496 0.98530114 -4.292511e-38
0.0036414405 0.012354448 0.22721021 0.037550792 0.058373801 0.99758828 -4.2925096e-38
0.011585145 0.012234143 0.22565371 0.22096932 0.10387499 0.96973324 -4.2925115e-38
0.020069061 0.012006042 0.22028832 0.75426048 0.00081422873 0.65657473 -4.2925138e-38
0.025345668 0.012528245 0.21379919 0.90792781 0.0009527948 0.41912556 -4.2925071e-38
-0.023953388 0.036727957 0.21185403 -0.94238168 0.00080342102 0.33453882 -4.2925023e-38
-0.01939318 0.036637738 0.21669303 -0.85231918 0.001058802 0.52302098 -4.2925141e-38
-0.011816649 0.03663595 0.22372848 -0.32419088 -0.040112879 0.94514084 -4.2925115e-38
-0.0038261085 0.037207983 0.22558443 -0.093448266 -0.10119123 0.9904685 -4.2925104e-38
0.0035371066 0.03731174 0.22620736 -0.027203662 -0.17265755 0.98460615 -4.2925093e-38
0.011503394 0.036521301 0.22507359 0.13771626 -0.078482665 0.98735744 -4.2925118e-38
0.020097893 0.036617547 0.22012232 0.72488177 0.00078893284 0.68887275 -4.2925141e-38
0.025354274 0.036357619 0.21378268 0.9090578 0.00099598186 0.4166688 -4.2925071e-38
-0.024223514 0.05919528 0.21124974 -0.94354373 0.00061893649 0.33124751 -4.2925023e-38
-0.019225078 0.060013164 0.2158756 -0.83057684 0.08481577 0.55040741 -4.2925132e-38
-0.012088479 0.06156813 0.22224966 -0.58120358 0.098633252 0.80775857 -4.2925127e-38
-0.0040442962 0.060800228 0.2261292 -0.21558294 0.076116659 0.97351432 -4.2925113e-38
0.0037907481 0.061116271 0.22671916 0.050401632 0.077255666 0.99573648 -4.2925099e-38
0.011807597 0.061648119 0.22439778 0.36620513 0.077849299 0.92727196 -4.2925127e-38
0.019892503 0.060234398 0.21889403 0.70000982 0.096425042 0.70759344 -4.2925135e-38
0.025315931 0.059647262 0.21360974 0.89618826 0.03910511 0.44194731 -4.2925045e-38
-0.023793343 0.080920517 0.21162426 -0.90191776 0.21678814 0.37356034 -4.2925023e-38
-0.018558774 0.086140864 0.21418598 -0.78051835 0.19989751 0.59231085 -4.2925104e-38
-0.011724475 0.084997647 0.21933173 -0.60303748 0.13456473 0.78628123 -4.2925132e-38
-0.0038478684 0.085949227 0.22361006 -0.23554437 0.12707643 0.96351981 -4.2925113e-38
0.0039790533 0.085215107 0.22423273 0.040999554 0.20237887 0.97844869 -4.2925113e-38
0.01191842 0.085013561 0.22165045 0.42889252 0.19647869 0.88172978 -4.2925121e-38
0.01957152 0.086011797 0.21599966 0.67198259 0.11592188 0.73143798 -4.2925132e-38
0.025155686 0.084923021 0.21287921 0.85020477 0.19798927 0.48780337 -4.2925023e-38
-0.017317209 0.10462459 0.21239918 -0.86889994 0.11520872 0.48139361 -4.2925023e-38
-0.011261564 0.10767931 0.21537532 0.84262526 -0.46313187 -0.27475715 -4.2925115e-38
-0.0038954504 0.10969079 0.21882856 -0.44231197 -0.30124152 0.84475654 -4.292511e-38
0.0040516248 0.10944532 0.21914141 0.054171924 -0.46018049 -0.88617116 -4.2925107e-38
0.011861489 0.10916743 0.21713826 -0.50217819 -0.35508385 -0.78850013 -4.2925124e-38
0.018568497 0.10619831 0.21311387 -0.081579104 -0.19618261 -0.97716796 -4.2925051e-38
0.023734435 0.10504506 0.21079884 0.90942657 0.17586094 0.37685043 -4.2925023e-38
-0.0097093917 0.13454279 0.21235509 -0.7399894 0.027681053 0.67204869 -4.2925023e-38
-0.0039802007 0.13429146 0.21431339 -0.38299638 0.039492592 0.92290527 -4.2925118e-38
0.003817009 0.13441284 0.21522512 0.12130456 0.055798758 0.99104577 -4.2925118e-38
0.010876652 0.13455489 0.21314536 0.60970688 0.028689096 0.79210764 -4.2925096e-38
0.01701954 0.1370399 0.21220532 0.79290229 0.034560982 0.60836792 -4.2925023e-38
-0.0089682462 0.14923754 0.21174447 -0.62680858 0.31393614 0.71313053 -4.2925023e-38
-0.0033033586 0.15222305 0.21274246 -0.357054 0.33206162 0.87306786 -4.2925023e-38
0.003836628 0.15340593 0.21308795 0.13909145 0.38234526 0.91349095 -4.2925057e-38
0.010632081 0.15071313 0.21220203 0.56468397 0.32127449 0.76020706 -4.2925023e-38
0.016659439 0.14690052 0.21080703 0.79148507 0.069466799 0.60722792 -4.2925023e-38
