# .PCD v0.7 - Point Cloud Data file format
VERSION 0.7
FIELDS x y z normal_x normal_y normal_z curvature
SIZE 4 4 4 4 4 4 4
TYPE F F F F F F F
COUNT 1 1 1 1 1 1 1
WIDTH 541
HEIGHT 1
VIEWPOINT 0 0 0 1 0 0 0
POINTS 541
DATA ascii
-0.042179208 -0.027341217 -0.0016695162 0 0.25271761 -0.96754009 -1.5812599e+20
-0.037595306 -0.027870864 -0.0011943585 0.07704258 -0.059610397 -0.99524415 -1.5812596e+20
-0.027732264 -0.027679021 -0.001093667 -0.0041960175 -0.044757444 -0.99898911 -1.5812601e+20
-0.02073686 -0.028705722 -0.0011701012 0.12371737 -0.044531275 -0.99131781 -1.5812597e+20
-0.011881131 -0.028236702 -0.00098751741 0.45922768 -0.092996456 -0.88343734 -1.5812597e+20
-0.0059734532 -0.027736632 -0.0011540422 0.8597396 -0.075800069 -0.50507641 -1.5812601e+20
0.0040936004 -0.028929798 -0.0011244973 0.15205719 0 -0.98837167 -1.5812599e+20
0.010802367 -0.02841405 -0.0010184582 0.00338664 -0.060206853 -0.99818021 -1.5812601e+20
0.019067975 -0.028429912 -0.0010937107 0.13648324 -0.090055943 -0.98654056 -1.5812597e+20
0.028073989 -0.027923003 -0.0010748317 0.0060843742 -0.13708121 -0.9905411 -1.5812599e+20
-0.042647038 -0.0088909464 -0.00090702873 0 0 -1 -1.5812601e+20
-0.037613228 -0.011043039 -0.0010850019 0.20395426 0 -0.97898042 -1.5812592e+20
-0.027885089 -0.010011082 -0.0011648745 0.41665474 0 -0.90906483 -1.5812594e+20
-0.020053543 -0.011675306 -0.0012340588 0.29408583 0 -0.95577896 -1.5812596e+20
-0.011162972 -0.011345267 -0.0012827496 0.30320367 0 -0.9529258 -1.5812596e+20
-0.0043639154 -0.01063836 -0.0011261087 0.70710677 0 -0.70710677 -1.5812597e+20
0.00382263 -0.011260396 -0.0010547078 0.57668316 0 -0.81696784 -1.5812596e+20
0.010033094 -0.011283698 -0.001045945 0.42288545 0 -0.90618312 -1.5812597e+20
0.018457498 -0.010509309 -0.0012440542 0.18208925 0 -0.98328197 -1.5812596e+20
0.028662555 -0.012251875 -0.0012002749 0 0 -1 -1.5812594e+20
-0.042107821 0.0059522488 -0.0012155672 0 0 -1 -1.5812599e+20
-0.037613127 0.010844747 -0.00097564969 0.23822153 0 -0.97121084 -1.5812592e+20
-0.027595174 0.010972209 -0.0011890933 0.43145549 0 -0.90213418 -1.5812596e+20
-0.019200683 0.010219255 -0.0012887663 0.2631174 0 -0.96476382 -1.5812596e+20
-0.011603194 0.011131251 -0.0013661106 0.42808634 0 -0.90373784 -1.5812596e+20
-0.004005366 0.01126647 -0.0011654937 0.70710677 0 -0.70710677 -1.5812597e+20
0.0048964457 0.011296096 -0.0010155155 0.65850461 0 -0.75257671 -1.5812596e+20
0.011087485 0.010207211 -0.0010264264 0.98287225 0 -0.18428855 -1.5812599e+20
0.0187451 0.011259729 -0.0012168919 0.61964428 0 -0.78488272 -1.5812596e+20
0.02837193 0.011510015 -0.0013532139 0 0 -1 -1.5812596e+20
-0.042281866 0.028685652 -0.00087609887 -0.046724331 0.18171844 -0.9822399 -1.5812599e+20
-0.037812185 0.031523723 -0.0011764277 0.17534867 0.1454398 -0.97370428 -1.5812592e+20
-0.027710026 0.033134505 -0.0013006935 0.10319495 0.082347818 -0.99124646 -1.5812596e+20
-0.01884375 0.033242647 -0.0013568915 0.15143228 0.11589082 -0.98165041 -1.5812596e+20
-0.012314633 0.03311846 -0.0012674555 0.66637784 0.072788499 -0.74205285 -1.5812596e+20
-0.0066438382 0.033485889 -0.0010302329 0.8497898 0.16072951 -0.50201923 -1.5812596e+20
0.0036428198 0.034031592 -0.00098494196 0.30787301 0.090375938 -0.94712532 -1.5812596e+20
0.010275061 0.033765014 -0.0010979533 0.33713594 0.18488713 -0.92312312 -1.5812596e+20
0.018509082 0.032836989 -0.0012185164 0.24556406 0.080223478 -0.96605515 -1.5812596e+20
0.028498093 0.031789344 -0.0011661754 0.031140646 0.10107838 -0.99439096 -1.5812596e+20
-0.019165337 0.045042396 -0.00039428473 -0.081247143 0.70236993 -0.70716017 -1.5812599e+20
-0.015476704 0.044716835 -0.0013006032 -0.081349991 0.70384753 -0.70567757 -1.5812599e+20
-0.001198113 0.045177996 -0.00026041269 0.028520966 0.70599073 -0.70764655 -1.5812599e+20
0.0014846921 0.045234308 -0.00055864453 0.028526729 0.70660686 -0.70703107 -1.5812599e+20
0.0093850493 0.045836598 -0.0001244843 0.079529323 0.70317823 -0.70655185 -1.5812599e+20
-0.042331688 -0.029591992 0.012926748 -0.99986285 -0.011687817 -0.011734569 -1.5812592e+20
-0.037960716 -0.031003911 0.012048605 -0.90108782 -0.39451519 -0.17999607 -1.581259e+20
-0.029165065 -0.034268647 0.0100347 -0.14009948 -0.86951888 -0.47361284 -1.581259e+20
-0.021063039 -0.034581199 0.0097654266 -0.0096285287 -0.8759526 -0.48230109 -1.581259e+20
-0.012751332 -0.034935176 0.0096982662 -0.046010993 -0.882478 -0.46809795 -1.581259e+20
-0.0041720304 -0.034634653 0.0093724923 0.040306319 -0.81356084 -0.58008111 -1.581259e+20
0.0042554764 -0.034752548 0.010011548 0.087817997 -0.93511444 -0.3432914 -1.581259e+20
0.01248818 -0.034183927 0.0092903683 0.10436086 -0.88520211 -0.45334992 -1.581259e+20
0.020613469 -0.034327757 0.010603368 0.13431965 -0.89217252 -0.43126163 -1.581259e+20
0.029455638 -0.030034939 0.012307918 0.97875988 -0.18099298 -0.09628401 -1.581259e+20
-0.042339701 -0.012586411 0.013176965 -0.99950624 0.015881054 -0.027113738 -1.581259e+20
-0.038634919 -0.011242557 0.01021955 -0.98286432 -0.012931606 -0.18387617 -1.581259e+20
-0.029306067 -0.011221971 0.0020869623 0.084123418 -0.051452138 -0.99512607 -1.5812592e+20
-0.021480823 -0.010689671 0.0020631994 0.21107854 -0.022734586 -0.97720462 -1.581259e+20
-0.012992424 -0.010482952 0.0026924612 0.061287824 -0.010983816 -0.99805969 -1.581259e+20
-0.0043809465 -0.010967568 0.0026366164 0.27511767 -0.028529551 -0.96098715 -1.581259e+20
0.004384622 -0.011015086 0.0024015589 0.22344732 -0.025851622 -0.97437316 -1.581259e+20
0.012206652 -0.010935959 0.0024202038 0.48156521 -0.033337951 -0.87577593 -1.581259e+20
0.020128313 -0.010878288 0.0023411587 0.42762479 -0.016634161 -0.90380323 -1.581259e+20
0.029616008 -0.011058618 0.011034179 0.98933023 0.00037743739 -0.14568979 -1.581259e+20
-0.042373143 0.011022937 0.011811559 -0.99929762 0.024986675 0.027926167 -1.581259e+20
-0.038719207 0.010645291 0.01072208 -0.98811036 -0.062168304 -0.14061669 -1.581259e+20
-0.02913147 0.011169318 0.002194148 0.2279135 0.0060767299 -0.97366244 -1.581259e+20
-0.020965256 0.011451265 0.0022608943 0.20851728 -0.0036316065 -0.97801191 -1.581259e+20
-0.012657544 0.011164538 0.0026737344 0.18334424 -0.037408002 -0.98233682 -1.581259e+20
-0.0040251222 0.011029096 0.0026249851 0.20399339 0.0058322721 -0.97895485 -1.581259e+20
0.0042842701 0.011142177 0.0025679877 0.32075122 -0.016455941 -0.94702053 -1.581259e+20
0.011657834 0.011755767 0.0022981472 0.52734637 0.007202263 -0.84961993 -1.581259e+20
0.020351961 0.011189597 0.0023153906 0.27661192 -0.012129291 -0.96090519 -1.581259e+20
0.029679239 0.010961677 0.011648369 0.98647892 -0.01201825 -0.16344689 -1.581259e+20
-0.042368766 0.033398293 0.012517148 -0.99919236 0.03943688 -0.0077080894 -1.581259e+20
-0.038540844 0.033403285 0.010262635 -0.96458161 0.086919501 -0.24905252 -1.581259e+20
-0.029339315 0.034565806 0.0027372211 -0.048574913 0.16497201 -0.98510134 -1.581259e+20
-0.021778377 0.034307193 0.0026183501 0.02034732 0.070689239 -0.99729085 -1.581259e+20
-0.013164365 0.033890434 0.0027103543 0.22025965 0.087195113 -0.97153622 -1.581259e+20
-0.004348062 0.033586796 0.0028294742 0.18373504 0.029398989 -0.98253608 -1.581259e+20
0.0040958938 0.034003865 0.0025956077 0.293814 0.037260566 -0.95513612 -1.581259e+20
0.011774839 0.033897836 0.0025890172 0.4242501 0.039480321 -0.90468401 -1.581259e+20
0.02032271 0.033611763 0.0027691019 0.14733663 0.1395852 -0.97918737 -1.581259e+20
0.029600719 0.033383597 0.011563751 0.98811787 0.026702065 -0.15136088 -1.581259e+20
-0.042357776 0.047976494 0.015207633 -0.63660359 0.75593466 -0.15263914 -1.5812596e+20
-0.037493587 0.048520274 0.014187006 -0.42599857 0.88114202 -0.20521687 -1.581259e+20
-0.029045634 0.050439283 0.013350807 -0.16591057 0.9545818 -0.24748193 -1.581259e+20
-0.020934191 0.051466435 0.013302085 -0.14260982 0.95218539 -0.27019519 -1.581259e+20
-0.012794008 0.051941391 0.012265235 -0.068981484 0.93196881 -0.35591543 -1.581259e+20
-0.0041916794 0.052224603 0.012761302 0.016349679 0.94390035 -0.32982549 -1.581259e+20
0.0041792737 0.052063301 0.012813721 0.068307146 0.94307369 -0.32549387 -1.581259e+20
0.012446587 0.051485769 0.013402363 0.15832257 0.95579809 -0.24775773 -1.581259e+20
0.02059697 0.050261147 0.013720457 0.18852115 0.95826226 -0.21492615 -1.581259e+20
0.028920315 0.048098441 0.015003056 0.66432101 0.73106402 -0.15563743 -1.581259e+20
-0.042824861 -0.030859042 0.038955327 -0.99993396 0 -0.011493494 -1.581259e+20
-0.038681455 -0.033657309 0.037741475 -0.83610696 -0.53763634 -0.10896017 -1.581259e+20
-0.029073793 -0.038804501 0.036391631 -0.040909346 -0.99136627 -0.12457677 -1.581259e+20
-0.020571433 -0.039239574 0.0376109 -0.023699259 -0.99531168 -0.093770526 -1.581259e+20
-0.01253183 -0.039218653 0.036745284 -0.013507284 -0.99603075 -0.087980002 -1.581259e+20
-0.0042280355 -0.039324615 0.037007838 0.0017800302 -0.99374712 -0.11163951 -1.581259e+20
0.0041491752 -0.039183598 0.036658533 0.018870289 -0.99736774 -0.070010848 -1.581259e+20
0.012304132 -0.039162178 0.037519135 0.025715619 -0.9940868 -0.10549995 -1.581259e+20
0.020701364 -0.038844194 0.036853585 0.030199345 -0.98693836 -0.15824212 -1.581259e+20
0.030062122 -0.032697737 0.037443109 0.95398241 -0.29529437 -0.052141652 -1.581259e+20
0.033510022 -0.030108908 0.038459238 1 0 0 -1.5812601e+20
-0.042857267 -0.010194972 0.03839184 -0.99994683 -0.0095230313 0.0039473777 -1.581259e+20
-0.039636411 -0.011207513 0.036751602 -0.99902475 -0.027371088 -0.034646653 -1.581259e+20
0.030765912 -0.011188513 0.037077714 0.99999475 -0.0032086472 0.00042161753 -1.581259e+20
0.033631086 -0.010680914 0.042569358 1 0 0 -1.5812601e+20
-0.042856559 0.010690396 0.037738293 -1 0 0 -1.581259e+20
-0.039653394 0.010942104 0.036898635 -0.99698895 0 -0.077543586 -1.581259e+20
0.030706262 0.011007856 0.037195116 0.99970877 0 -0.024130901 -1.581259e+20
0.033750996 0.011336952 0.041894034 1 0 0 -1.5812601e+20
-0.042801362 0.032773901 0.037304867 -0.99967855 0.0023568855 0.025242692 -1.581259e+20
-0.03956075 0.032954436 0.036841389 -0.99960816 -0.022333048 0.016872954 -1.581259e+20
-0.02816613 0.042877287 0.049497187 0 0.34297246 0.93934548 -1.5812599e+20
-0.021063246 0.043548681 0.04932864 0 0.34297246 0.93934548 -1.5812599e+20
-0.011058286 0.043388546 0.04923822 0 0.34297246 0.93934548 -1.5812599e+20
-0.0044175535 0.042648017 0.049486116 0 0.34297246 0.93934548 -1.5812599e+20
0.0036731362 0.043422461 0.049136054 0 0.3429724 0.93934542 -1.5812599e+20
0.014549792 0.043810021 0.049294394 0 0.3429724 0.93934542 -1.5812599e+20
0.020586312 0.04364562 0.049308598 0 0.34297246 0.93934548 -1.5812599e+20
0.030642597 0.033287119 0.037473932 0.99988556 0.0012343792 -0.015079862 -1.581259e+20
0.033871751 0.034029081 0.040590052 1 0 0 -1.5812601e+20
-0.042882163 0.04841537 0.037941601 -0.98724115 0.15923244 0 -1.5812596e+20
-0.038000818 0.049250677 0.038678523 -0.25775284 0.95885921 -0.11896405 -1.581259e+20
-0.029311623 0.049970176 0.038431399 -0.054584432 0.99630618 0.066291988 -1.581259e+20
-0.020908099 0.052000213 0.038248319 -0.28505683 0.95776337 0.037840445 -1.581259e+20
-0.012817771 0.053244356 0.038003776 -0.06360656 0.98751569 0.14410733 -1.581259e+20
-0.0042648464 0.053253327 0.038327184 0.0079393163 0.9951157 0.098396167 -1.581259e+20
0.0044315537 0.05313414 0.038134504 0.079145029 0.9900046 0.11673438 -1.581259e+20
0.012466161 0.051817149 0.038467869 0.36158967 0.93205631 -0.022889692 -1.581259e+20
0.020921627 0.049941134 0.038415581 -0.013158879 0.99983889 0.012207782 -1.581259e+20
0.029478613 0.04905146 0.038571306 0.63910568 0.76543868 -0.075150192 -1.581259e+20
0.033967957 0.049756348 0.043071806 1 0 0 -1.5812599e+20
-0.042732503 -0.032001331 0.057058461 -0.99947971 0.0049709096 0.031869192 -1.5812592e+20
-0.038289823 -0.032921568 0.058411501 -0.81393611 -0.30789003 0.49265772 -1.581259e+20
-0.029280581 -0.035544276 0.059635449 -0.0018164512 -0.67861527 0.73449165 -1.581259e+20
-0.020630857 -0.033486847 0.063078217 -0.48697507 -0.7513507 0.44533977 -1.581259e+20
-0.012714195 -0.037693061 0.061792243 -0.25627851 -0.95745015 0.13270476 -1.581259e+20
-0.0039757951 -0.038653303 0.062183093 0.0047343727 -0.99733835 0.072757505 -1.581259e+20
0.0045083635 -0.037497249 0.062164839 0.24927163 -0.95861459 0.13755597 -1.581259e+20
0.012304677 -0.034142114 0.0629832 0.46173084 -0.77836055 0.42539325 -1.581259e+20
0.020844003 -0.035606138 0.060207728 0.00044129853 -0.68092364 0.73235428 -1.581259e+20
0.029992372 -0.032179758 0.058268577 0.91851938 -0.1738849 0.3550863 -1.581259e+20
0.033565618 -0.031637296 0.056273621 1 0 0 -1.5812601e+20
-0.042865869 -0.010518765 0.056220572 -0.99840128 0.0026826907 0.056458954 -1.5812592e+20
-0.038746681 -0.011750963 0.057731446 -0.90205008 0.024713274 0.4309234 -1.581259e+20
-0.029504411 -0.01168495 0.06207037 -0.031257693 0.082252406 0.99612117 -1.5812592e+20
-0.022216737 -0.010821532 0.06776531 -0.95178598 0.04775764 0.3030225 -1.581259e+20
0.013216943 -0.01113208 0.068944044 0.99698037 0.027465165 0.072635375 -1.581259e+20
0.020992557 -0.010507147 0.064603068 0.0010301586 0.086890757 0.99621725 -1.5812592e+20
0.03044571 -0.011420545 0.058097173 0.9280799 0.022766441 0.3716844 -1.581259e+20
0.033662703 -0.013182908 0.055633608 1 0 0 -1.5812601e+20
-0.042788804 0.010976639 0.055889506 -1 0 0 -1.5812594e+20
-0.038583592 0.010738824 0.056518599 -0.84615529 0.078881457 0.52706635 -1.581259e+20
-0.029268334 0.012313557 0.059539985 -0.0070356373 0.17137314 0.98518103 -1.5812592e+20
-0.020560667 0.0087722884 0.06391789 -0.54300761 0.46022129 0.70238113 -1.581259e+20
-0.012729286 0.01392074 0.064258225 -0.34217662 0.78141016 0.52183652 -1.581259e+20
-0.0041060629 0.015829228 0.064380251 -0.0020205602 0.88548601 0.46466175 -1.5812592e+20
0.0044355094 0.014287987 0.064757906 0.36864278 0.78654295 0.49543178 -1.581259e+20
0.012262261 0.0099627655 0.0640053 0.50818372 0.46808654 0.72294134 -1.581259e+20
0.021055724 0.011590454 0.061070047 -0.0015687632 0.18373838 0.98297393 -1.5812592e+20
0.030499905 0.010695539 0.056636393 0.93658036 0.054563995 0.34617925 -1.581259e+20
0.033710569 0.012290239 0.056726109 0.94955707 0.036257718 0.31149122 -1.5812599e+20
-0.043106899 0.031102659 0.052905798 -1 0 0 -1.5812596e+20
-0.038148504 0.032197673 0.054006223 -0.60743695 0.2347669 0.75888389 -1.581259e+20
-0.029122505 0.032971799 0.055052899 0 0.29023027 0.95695686 -1.581259e+20
-0.020747848 0.033378292 0.055140413 0 0.29131508 0.95662719 -1.581259e+20
-0.012695976 0.03405511 0.055134173 0 0.29527032 0.9554137 -1.581259e+20
-0.0040214639 0.034077201 0.055266555 0 0.2942248 0.95573628 -1.581259e+20
0.004320486 0.034397945 0.055262107 0 0.29632685 0.95508659 -1.5812592e+20
0.01236742 0.033178896 0.055717394 0 0.28816292 0.9575814 -1.581259e+20
0.020696627 0.033513449 0.055753697 0 0.29249275 0.95626777 -1.581259e+20
0.030232411 0.032009039 0.054369401 0.85561317 0.14962107 0.49551964 -1.581259e+20
0.033906534 0.031685561 0.054095984 1 0 0 -1.5812599e+20
-0.042671144 0.047882956 0.051679648 -1 0 0 -1.5812599e+20
-0.036821876 0.049238212 0.051741149 -0.066020273 0.61315876 0.78719616 -1.5812599e+20
-0.028991168 0.04926496 0.051999141 0 0.63652766 0.77125394 -1.5812599e+20
-0.02129036 0.048004914 0.052196264 0 0.47821808 0.87824106 -1.5812596e+20
-0.012367387 0.049016625 0.051882852 0 0.52363074 0.85194528 -1.5812597e+20
-0.0044235145 0.049090479 0.052072629 0 0.59546191 0.80338353 -1.5812597e+20
0.00417011 0.048793152 0.05227048 0 0.56470668 0.82529169 -1.5812596e+20
0.012248518 0.048969511 0.051796522 0 0.60479081 0.79638439 -1.5812596e+20
0.020765837 0.049027387 0.052280195 0 0.59380776 0.80460697 -1.5812596e+20
0.029495772 0.048313722 0.051856566 0.57234949 0.32307649 0.75368267 -1.5812596e+20
-0.01988777 -0.027809884 0.086713679 -0.92784077 -0.37035188 0.044169188 -1.581259e+20
-0.012694946 -0.034758508 0.087223746 -0.52956736 -0.84280682 0.096099578 -1.581259e+20
-0.0040946607 -0.036985219 0.087161012 2.0433994e-05 -0.99393845 0.10993805 -1.581259e+20
0.0047324034 -0.034520347 0.087062895 0.54436201 -0.83342445 0.095255822 -1.581259e+20
0.011669467 -0.027743304 0.086775236 0.92497706 -0.37741801 0.044418912 -1.581259e+20
-0.02155068 -0.011023779 0.087684788 -0.99999988 0.00035052659 -0.00026187141 -1.581259e+20
0.013562162 -0.011060368 0.087232165 0.99999928 -0.001213477 2.7520985e-06 -1.581259e+20
-0.020180238 0.0075737098 0.089013621 -0.92453092 0.35606155 -0.13587734 -1.581259e+20
-0.012965039 0.015779648 0.086473398 -0.49906182 0.80635244 -0.31738463 -1.581259e+20
-0.0041639293 0.017726211 0.084952831 -0.0013257717 0.93354481 -0.35845825 -1.581259e+20
0.004665093 0.01582437 0.086224757 0.47825924 0.8182413 -0.31898162 -1.581259e+20
0.012099729 0.0074991565 0.088685095 0.92009741 0.36677682 -0.13746095 -1.581259e+20
-0.016911387 0.022351082 0.099192262 -0.60863531 0.71444374 -0.34515679 -1.5812599e+20
-0.011472431 0.022903102 0.096340246 -0.38271281 0.83227104 -0.40106833 -1.5812601e+20
-0.0044821235 0.023783498 0.096236706 -0.027436743 0.90031034 -0.43438295 -1.5812597e+20
0.0029274207 0.023178965 0.097722828 0.40646124 0.82274568 -0.39733955 -1.5812601e+20
-0.019069213 -0.025640465 0.10925364 -0.86893201 -0.47677675 0.13281968 -1.581259e+20
-0.012830999 -0.029564235 0.1114988 -0.54688841 -0.80626404 0.22550212 -1.581259e+20
-0.0043007219 -0.032002848 0.11157481 -0.009856631 -0.96358252 0.26722938 -1.581259e+20
0.0044682235 -0.029722158 0.11163209 0.51338083 -0.82650357 0.230937 -1.581259e+20
0.011029681 -0.02555115 0.10867806 0.86660081 -0.48080006 0.13354518 -1.581259e+20
-0.021306068 -0.011134146 0.11182325 -0.99788862 -0.062272191 0.018450726 -1.581259e+20
-0.016549125 -0.020713761 0.12268107 -0.79346484 -0.58218342 0.17741476 -1.5812599e+20
0.0068365633 -0.021238983 0.12376589 0.79331803 -0.58281177 0.17600265 -1.5812599e+20
0.013287768 -0.011194373 0.11195118 0.99746734 -0.068197452 0.020200344 -1.581259e+20
-0.021061653 0.01068824 0.11232463 -0.98724759 0.14787388 -0.058952544 -1.581259e+20
-0.015294332 0.019899795 0.10568441 -0.70369202 0.64931005 -0.28846809 -1.5812596e+20
-0.008237103 0.021731138 0.10113309 -0.13066384 0.89271802 -0.43125573 -1.5812599e+20
0.0066619511 0.020436356 0.10360471 0.62465572 0.70798647 -0.32948503 -1.5812601e+20
0.013028619 0.011010083 0.11205903 0.98432779 0.16349798 -0.06608478 -1.581259e+20
-0.018686917 0.02422622 0.11507427 -0.7804395 0.59881043 -0.17983368 -1.5812592e+20
-0.012585988 0.027254948 0.11230288 -0.47958466 0.83601415 -0.26660597 -1.581259e+20
-0.0041402183 0.029285554 0.11166786 0.0017828482 0.95338243 -0.30175942 -1.581259e+20
0.0045508239 0.027318789 0.11213149 0.4637467 0.84333229 -0.27153215 -1.581259e+20
0.010809558 0.024714818 0.11672988 0.77167064 0.61526817 -0.16115056 -1.5812592e+20
-0.018392885 -0.023409417 0.12858434 -0.7934491 -0.58332264 0.17370406 -1.5812601e+20
-0.012147482 -0.024706576 0.13207053 -0.4757973 -0.84511721 0.24370842 -1.5812592e+20
-0.0040693781 -0.025456555 0.13469441 0.0021394389 -0.96298885 0.26953271 -1.581259e+20
0.003791413 -0.024584675 0.13223527 0.44558862 -0.86066508 0.24638644 -1.5812592e+20
0.0091371201 -0.023398422 0.12759659 0.77312177 -0.60777026 0.18137813 -1.5812601e+20
-0.020749319 -0.010062406 0.1362088 -0.98007005 -0.19221267 0.050169267 -1.581259e+20
-0.013734705 -0.019892979 0.14062448 -0.61938047 -0.76201195 0.18895935 -1.5812592e+20
-0.0052516828 -0.021411154 0.1459689 -0.045733456 -0.97530419 0.2160791 -1.5812597e+20
0.0055114692 -0.020074107 0.14124541 0.5897752 -0.78463417 0.19108742 -1.5812592e+20
0.012667803 -0.0099404724 0.13638899 0.9811601 -0.18716475 0.047897946 -1.581259e+20
0.016692787 -0.00081783533 0.14731711 1 0 0 -1.5812599e+20
-0.021551805 0.010921159 0.13694479 -0.99922937 0.038559999 -0.0073404643 -1.581259e+20
0.013349873 0.011045118 0.13708843 0.99909526 0.041786291 -0.0079150051 -1.581259e+20
0.016733531 0.012038793 0.13975844 0.99994034 0.010456915 -0.0031684411 -1.5812601e+20
-0.019583341 0.027106909 0.13884827 -0.85774922 0.4809562 -0.18151413 -1.581259e+20
-0.012546986 0.035603847 0.13613324 -0.88119 0.39843506 -0.25446764 -1.581259e+20
-0.0042349957 0.036402773 0.12884541 -0.079945296 0.27412972 -0.95836401 -1.5812592e+20
0.004366124 0.035981365 0.1364872 0.89678299 0.38717249 -0.21419097 -1.581259e+20
0.011484841 0.026834469 0.13879292 0.85616863 0.48400712 -0.1808655 -1.581259e+20
-0.010637638 0.048229199 0.13795194 -0.78690416 0.60292685 -0.13138194 -1.5812592e+20
-0.0041209818 0.049881544 0.13738626 -0.029848741 0.97152293 -0.23505808 -1.581259e+20
0.0026898133 0.048212409 0.13870344 0.77824944 0.61981529 -0.10078143 -1.581259e+20
-0.017115593 -0.049027726 0.1733878 -0.38049477 -0.22397956 -0.89724964 -1.5812599e+20
-0.012250024 -0.050028827 0.17275076 -0.24946649 -0.23045309 -0.94056255 -1.5812596e+20
-0.0042958488 -0.051359277 0.17220184 -0.0082652904 -0.23702686 -0.97146791 -1.5812594e+20
0.0036753907 -0.050599318 0.17264672 0.2364122 -0.22945122 -0.94417232 -1.5812597e+20
0.0092095835 -0.050003175 0.17341347 0.37988082 -0.23071437 -0.89580214 -1.5812599e+20
-0.025916278 -0.024730159 0.17316778 -0.5927617 -0.13894534 -0.79330182 -1.5812599e+20
-0.019969823 -0.030627547 0.171827 -0.44474894 -0.16595933 -0.88014537 -1.5812592e+20
-0.012522478 -0.032556653 0.16994432 -0.2651751 -0.25407723 -0.93012196 -1.581259e+20
-0.0041157273 -0.032027528 0.16914932 -0.0036562765 -0.36137736 -0.93241245 -1.581259e+20
0.004027938 -0.033071507 0.17062035 0.24987409 -0.22338626 -0.94215792 -1.581259e+20
0.011465808 -0.030114092 0.17186818 0.431867 -0.16451506 -0.88680649 -1.5812594e+20
0.01764155 -0.025497979 0.17273277 0.57065344 -0.1471494 -0.80789948 -1.5812599e+20
-0.027176891 -0.0088498471 0.17271799 -0.60540271 -0.088323534 -0.79100358 -1.5812594e+20
-0.020772714 -0.009654534 0.162086 -0.95400041 -0.23433009 -0.18700971 -1.581259e+20
-0.013260239 -0.018606206 0.16016713 -0.57803851 -0.80630034 -0.12550373 -1.581259e+20
-0.0041385549 -0.02102842 0.15831035 -0.0071679694 -0.99755365 -0.069535688 -1.5812592e+20
0.0050570299 -0.018860016 0.16008642 0.54844218 -0.82944316 -0.1059964 -1.581259e+20
0.01260744 -0.0095595298 0.1621148 0.95168799 -0.23162469 -0.20159359 -1.581259e+20
0.018925168 -0.0073476746 0.17221545 0.63627535 -0.084360152 -0.76683569 -1.5812597e+20
-0.027862841 0.011918215 0.17181817 -0.60889566 -0.0011951308 -0.79324949 -1.5812592e+20
-0.021590857 0.010849743 0.1606006 -0.99502861 -0.0014468879 -0.099579424 -1.581259e+20
0.013698485 0.010916695 0.16121149 0.9925403 -0.0014802985 -0.12190843 -1.581259e+20
0.018601706 0.011205856 0.17021933 0.69413084 -0.00377312 -0.71983886 -1.5812594e+20
-0.028053684 0.034239464 0.17140843 -0.45845094 -0.00017696113 -0.88871974 -1.5812592e+20
-0.020997563 0.032519501 0.16061264 -0.97170997 0.10670714 -0.2106974 -1.581259e+20
-0.014915258 0.0394805 0.15241593 -0.7111035 0.40446693 -0.57509851 -1.5812596e+20
0.0060855662 0.040353052 0.15162809 0.64766878 0.43481624 -0.62566757 -1.5812596e+20
0.013082132 0.032758556 0.16105333 0.95556659 0.1252875 -0.26682475 -1.581259e+20
0.019882169 0.034287319 0.1717694 0.7395215 0.046464607 -0.67152739 -1.5812592e+20
-0.027030364 0.05283998 0.17219864 -0.58238894 0.1694345 -0.7950567 -1.5812596e+20
-0.020132363 0.053637065 0.16529702 -0.83286238 0.24162397 -0.49795404 -1.581259e+20
-0.012969235 0.057423368 0.15887778 -0.6218847 0.54381174 -0.56349641 -1.581259e+20
-0.0041544046 0.060919724 0.15779191 0.00087356649 0.77212012 -0.63547605 -1.581259e+20
0.0046282704 0.057544015 0.15901755 0.59269601 0.56362695 -0.57535744 -1.581259e+20
0.011888461 0.053568155 0.16582549 0.88180208 0.2685335 -0.38770479 -1.581259e+20
0.018792674 0.052721791 0.17260312 0.74622232 0.24547713 -0.61878371 -1.5812599e+20
-0.019844737 0.075561315 0.1716639 -0.47330022 0.14111085 -0.86952555 -1.5812592e+20
-0.012342672 0.078002781 0.17079514 -0.24026258 0.14577225 -0.95970017 -1.581259e+20
-0.0043200045 0.077881753 0.17051487 0.013060865 0.12071326 -0.99260151 -1.581259e+20
0.0039466713 0.077376157 0.17127933 0.23933107 0.14402956 -0.96019584 -1.581259e+20
0.011382914 0.075487189 0.17212914 0.43004468 0.14024737 -0.89184761 -1.5812594e+20
0.017332256 0.07236667 0.17279068 0.80891699 2.2129101e-05 0.58792287 -1.5812599e+20
-0.019960374 0.090033539 0.17361087 -0.30342057 0.76302284 -0.57072949 -1.5812599e+20
-0.012401012 0.096892633 0.17272741 -0.25333071 0.42379475 -0.86961001 -1.5812596e+20
-0.004118117 0.09430901 0.17190404 0.0070044016 0.48936218 -0.87205249 -1.5812596e+20
0.00368649 0.096961692 0.17252764 0.18500197 0.65148473 -0.73575944 -1.5812599e+20
0.011026353 0.090423524 0.17359987 0.12157517 0.95429879 -0.2730079 -1.5812599e+20
-0.012477745 0.1157295 0.17344697 -0.23865443 0.068384849 -0.96869373 -1.5812601e+20
-0.003374517 0.12306612 0.17335594 0.014592898 0.045877125 -0.99884051 -1.5812601e+20
0.0046869591 0.11785589 0.17354436 0.2531727 0.085242838 -0.96365827 -1.5812599e+20
-0.026825029 -0.067798972 0.19528137 -0.618873 -0.74715585 -0.24239305 -1.5812601e+20
-0.020224335 -0.068621278 0.19224805 -0.26192501 -0.94040477 -0.21687354 -1.5812592e+20
-0.011922264 -0.068778954 0.18965305 -0.062389735 -0.98561275 -0.15708299 -1.581259e+20
-0.00414075 -0.068862431 0.18887904 -0.002581036 -0.98684663 -0.16163878 -1.581259e+20
0.0036779512 -0.068816245 0.18998337 0.057507634 -0.98849571 -0.13988966 -1.581259e+20
0.011950671 -0.068462163 0.19286938 0.24754526 -0.95000815 -0.19027859 -1.5812592e+20
0.019111613 -0.067589372 0.19624244 0.65467298 -0.72692871 -0.20731138 -1.5812601e+20
-0.034727532 -0.049368352 0.19498242 -0.93461019 -0.2412169 -0.26137757 -1.5812594e+20
-0.029372098 -0.055366144 0.1897293 -0.83958942 -0.28418264 -0.46295765 -1.581259e+20
-0.021302762 -0.056452245 0.18100654 -0.58180803 -0.30119845 -0.75549906 -1.581259e+20
-0.012915445 -0.057731826 0.17754336 -0.30477428 -0.31405401 -0.89915669 -1.581259e+20
-0.0040574726 -0.058217883 0.1768702 -0.0010977183 -0.33658132 -0.94165373 -1.5812592e+20
0.0045790202 -0.057423141 0.17780028 0.29027915 -0.32206002 -0.90111899 -1.581259e+20
0.013004138 -0.056222618 0.18171041 0.58042657 -0.31186372 -0.75222737 -1.581259e+20
0.0208518 -0.05528342 0.19029559 0.84561098 -0.28625891 -0.45055288 -1.581259e+20
0.0263918 -0.049695861 0.19521987 0.93243945 -0.23464112 -0.27477321 -1.5812594e+20
-0.036334947 -0.031579632 0.19193177 -0.92184627 -0.098944515 -0.37471244 -1.581259e+20
-0.02968026 -0.033848435 0.18225108 -0.75917286 -0.1479646 -0.63384789 -1.581259e+20
-0.022209138 -0.035718206 0.17636688 -0.55030215 -0.18315111 -0.81463063 -1.5812592e+20
-0.0133144 -0.040726274 0.17510729 -0.31550533 -0.20396467 -0.92674422 -1.5812601e+20
-0.0022361118 -0.042523708 0.17461134 0.078484043 -0.20391759 -0.97583705 -1.5812599e+20
0.0058847694 -0.040082466 0.17531511 0.32127115 -0.20168103 -0.92526191 -1.5812601e+20
0.013333664 -0.034998808 0.17695086 0.53427643 -0.18009485 -0.82590222 -1.5812592e+20
0.021471934 -0.033773053 0.18338941 0.81714886 -0.16571003 -0.55209416 -1.581259e+20
0.027887961 -0.031641789 0.19226967 0.90592158 -0.052993163 -0.42011642 -1.581259e+20
-0.042367365 -0.0082242014 0.19617927 -0.97499049 -0.029219151 -0.2203175 -1.5812596e+20
-0.03730027 -0.010690691 0.18876563 -0.91136712 -0.09715537 -0.39996341 -1.581259e+20
-0.030331705 -0.012114161 0.17880844 -0.75182903 -0.10550356 -0.65086251 -1.581259e+20
-0.023108857 -0.016588921 0.17533594 -0.5470103 -0.11861759 -0.82867938 -1.5812601e+20
0.015007301 -0.013631967 0.17526899 0.55444986 -0.10555822 -0.82549548 -1.5812596e+20
0.021470873 -0.011284698 0.17863111 0.71615475 -0.099659242 -0.6907897 -1.581259e+20
0.028734531 -0.010891106 0.18901402 0.91989303 -0.16291463 -0.35672897 -1.581259e+20
0.034364946 -0.0085560037 0.19528358 0.97235984 -0.080539666 -0.21915674 -1.5812597e+20
-0.042845957 0.01220322 0.19469039 -0.96735895 0.014712937 -0.25298271 -1.5812592e+20
-0.037457846 0.010547963 0.18683527 -0.93989128 -0.075394124 -0.33304688 -1.581259e+20
-0.030782482 0.010954293 0.17783071 -0.73284829 0.00074896956 -0.68039167 -1.581259e+20
0.015545296 0.008267032 0.17435534 0.51405889 -0.034841705 -0.8570469 -1.5812601e+20
0.021964759 0.010692052 0.17792591 0.69538397 -0.0051196115 -0.71862018 -1.581259e+20
0.029511735 0.010848727 0.18767612 0.88633078 -0.071459286 -0.45750555 -1.581259e+20
0.035018813 0.011976645 0.19462851 0.9707908 -0.070489302 -0.22933926 -1.5812594e+20
-0.042759426 0.031776752 0.19487427 -0.94212043 0.068939514 -0.32811049 -1.5812592e+20
-0.037897229 0.033388246 0.18752842 -0.90917397 0.041080598 -0.41438529 -1.581259e+20
-0.029990524 0.033105958 0.17784019 -0.8707245 0.072248206 -0.48643497 -1.581259e+20
-0.024562001 0.029615164 0.17660663 0 0 1 -1.5812599e+20
0.014473759 0.031858105 0.1746016 0.80178368 -0.26726124 -0.53452247 -1.5812601e+20
0.021815162 0.033725329 0.17815417 0.68985426 0.10179688 -0.71675551 -1.581259e+20
0.029292122 0.032949001 0.18860455 0.91188514 0.0038281486 -0.4104276 -1.581259e+20
0.034965269 0.032210443 0.19484365 0.93972206 0.15461205 -0.30498764 -1.5812594e+20
-0.042323522 0.052478757 0.19658603 -0.97484428 0.15479906 -0.16036186 -1.5812599e+20
-0.037405323 0.055442501 0.18901332 -0.90814376 0.10810055 -0.40446165 -1.581259e+20
-0.029760635 0.056392852 0.1786145 -0.69519305 0.0078429459 -0.71878022 -1.581259e+20
-0.022013385 0.057097133 0.17614697 -0.71531641 -0.25649968 -0.65002334 -1.5812597e+20
0.014731864 0.058035921 0.17566781 0.66456777 0.073008642 -0.7436527 -1.5812594e+20
0.021184655 0.055778116 0.179208 0.69785893 0.00024731137 -0.71623516 -1.581259e+20
0.028956555 0.055714272 0.18969418 0.91358352 0.08937671 -0.39670756 -1.581259e+20
0.034337115 0.051566947 0.19565442 0.97229713 0.092294492 -0.21475612 -1.5812599e+20
-0.036136214 0.076639846 0.19202591 -0.9141587 0.12823309 -0.38453898 -1.581259e+20
-0.029497845 0.07832168 0.18232353 -0.74338579 0.16936298 -0.64706546 -1.581259e+20
-0.021777175 0.079580985 0.17697813 -0.66482979 0.14554042 -0.73267949 -1.5812592e+20
-0.014487762 0.083673775 0.17522927 -0.31233594 0.4587999 -0.83183467 -1.5812599e+20
-0.00074498355 0.086452529 0.17407714 0.13750772 0.1547676 -0.97833461 -1.5812599e+20
0.0063930955 0.084799439 0.1751681 0.2939024 0.62023443 -0.72727615 -1.5812601e+20
0.013589286 0.079130448 0.17689468 0.63284606 0.11062453 -0.76633424 -1.581259e+20
0.021295223 0.078874193 0.18281533 0.74097955 0.18694061 -0.64498264 -1.581259e+20
0.027623925 0.076563582 0.19204573 0.9214493 0.12284197 -0.3685663 -1.581259e+20
0.034066558 0.068570316 0.19575328 0.97634047 0.13083532 -0.172167 -1.5812599e+20
-0.034635834 0.096330278 0.19568926 -0.88721001 0.41433287 -0.20294525 -1.5812592e+20
-0.029064761 0.099622793 0.18989249 -0.84922224 0.22068924 -0.47970596 -1.581259e+20
-0.021271115 0.10071281 0.18066575 -0.62524748 0.15425844 -0.76502937 -1.581259e+20
-0.012668062 0.10106818 0.17706569 -0.19287556 -0.0019022225 -0.98122138 -1.581259e+20
-0.0040688128 0.10103068 0.17673509 -0.0016214389 0.11401452 -0.9934777 -1.581259e+20
0.0042094151 0.10057542 0.17695539 0.11740805 0.080902547 -0.98978287 -1.581259e+20
0.012915186 0.10064328 0.18082625 0.6687023 0.10389007 -0.73623645 -1.581259e+20
0.020849839 0.099378683 0.19036618 0.84157282 0.16966945 -0.51280361 -1.581259e+20
0.026952988 0.094454661 0.19499286 0.79320896 0.56832814 -0.21868418 -1.5812594e+20
-0.034126293 0.11678084 0.19726188 -0.97661823 0.099554047 -0.19054115 -1.5812601e+20
-0.02860898 0.12217946 0.19170396 -0.88325876 0.064590581 -0.46441585 -1.581259e+20
-0.021250552 0.12254884 0.18309042 -0.65136504 0.11904 -0.74936843 -1.581259e+20
-0.012616178 0.12308858 0.17912722 -0.25938457 0.11561334 -0.9588291 -1.581259e+20
-0.0039758999 0.12298639 0.1781617 0.0018364777 0.066301465 -0.99779797 -1.581259e+20
0.0044003702 0.12313141 0.17935532 0.22426671 0.12986927 -0.96583557 -1.581259e+20
0.013077332 0.12201002 0.1829984 0.67062193 0.11248636 -0.73322099 -1.581259e+20
0.020219726 0.12241069 0.19236229 0.88506067 0.064700246 -0.46095717 -1.581259e+20
0.0258571 0.12242415 0.1956095 0.95370477 0.10760962 -0.28083339 -1.5812601e+20
-0.027316602 0.1399786 0.19413197 -0.88607931 0.28338864 -0.3668164 -1.581259e+20
-0.020993371 0.14461367 0.18975696 -0.60826284 0.55331206 -0.56908888 -1.581259e+20
-0.012753551 0.14524646 0.18648499 -0.17614724 0.8249405 -0.53707099 -1.581259e+20
-0.0042402376 0.14499107 0.18340468 -0.016705764 0.81510341 -0.57907456 -1.581259e+20
0.0045740749 0.14497474 0.18586455 0.094519757 0.80362302 -0.58758497 -1.581259e+20
0.012543543 0.14451183 0.1897448 0.58163804 0.5926199 -0.55722427 -1.581259e+20
0.018904639 0.14023788 0.19434632 0.87916267 0.30524388 -0.36592239 -1.581259e+20
-0.027169036 -0.067890316 0.20794284 -0.63241941 -0.76517642 0.12062602 -1.5812594e+20
-0.020402476 -0.06892629 0.21055309 -0.18589225 -0.97532171 0.11912869 -1.581259e+20
-0.012169524 -0.069154829 0.21185705 -0.023780836 -0.99859768 0.047298487 -1.581259e+20
-0.0041819075 -0.069224998 0.21120605 -0.0013862283 -0.99984419 0.017599149 -1.581259e+20
0.0038286799 -0.069157921 0.21174355 0.018613132 -0.99905878 0.039179098 -1.581259e+20
0.012169625 -0.068791486 0.21039651 0.18386883 -0.97653735 0.11210284 -1.581259e+20
0.018986285 -0.067626819 0.20689179 0.60201037 -0.79274738 0.095577106 -1.5812596e+20
-0.0349411 -0.050953392 0.2073822 -0.96577638 -0.23702838 0.10532542 -1.581259e+20
-0.029992441 -0.057048913 0.21314035 -0.89916617 -0.3040809 0.31469828 -1.581259e+20
-0.022874067 -0.062042449 0.2205352 -0.66223741 -0.45999464 0.59147835 -1.5812596e+20
0.0078707039 -0.053981364 0.22347009 0.021909665 -0.13019726 -0.99124599 -1.5812599e+20
0.013789255 -0.059132759 0.22168715 0.51196891 -0.41131341 0.75412798 -1.5812594e+20
0.021493075 -0.057131719 0.21276194 0.88765973 -0.32589757 0.32534757 -1.581259e+20
0.026655741 -0.050439905 0.20754884 0.96487409 -0.23439942 0.11863749 -1.581259e+20
-0.041877478 -0.025536478 0.20308962 -0.98608953 -0.16293813 0.032842137 -1.5812599e+20
-0.036987998 -0.032987367 0.21015513 -0.97354275 -0.16785675 0.15504369 -1.581259e+20
-0.031368308 -0.036283989 0.22029184 -0.82451051 -0.12954149 0.55081886 -1.5812592e+20
0.023530271 -0.035691906 0.21955396 0.87392396 -0.12994671 0.46837029 -1.5812592e+20
0.028684443 -0.033042319 0.20937514 0.97451979 -0.16507557 0.15185922 -1.581259e+20
0.03377109 -0.026493482 0.20407191 0.98636097 -0.16438909 0.0082595376 -1.5812599e+20
-0.042669185 -0.0087293955 0.20562397 -0.99567008 -0.07708016 0.051958378 -1.5812592e+20
-0.038670607 -0.011913084 0.21246116 -0.97366649 -0.11322707 0.19787176 -1.581259e+20
-0.032191034 -0.015820531 0.22146969 -0.27041584 0.12042025 0.95518285 -1.5812601e+20
0.024651134 -0.014853107 0.21935022 1 -4.0841041e-07 -2.2251327e-06 -1.5812601e+20
0.030011723 -0.01149313 0.21251671 0.95691985 -0.071777761 0.28134006 -1.581259e+20
0.03461998 -0.0091201942 0.20626244 0.99563354 -0.065992162 0.06602107 -1.5812592e+20
-0.043113574 0.010962355 0.20665416 -0.99866563 -0.024158839 0.045644205 -1.581259e+20
-0.038860682 0.010471862 0.21549554 -0.96080852 -0.061378814 0.27033246 -1.581259e+20
-0.032871097 0.0099884355 0.21888277 -0.9128601 -0.00017755672 0.40827245 -1.5812599e+20
0.024345845 0.012535572 0.2220208 0.087177292 -0.12462899 -0.98836625 -1.5812599e+20
0.030817665 0.011206497 0.21353865 0.98762679 -0.15299948 -0.03441678 -1.581259e+20
0.034997288 0.010807458 0.20766859 0.99543953 0.0090480018 0.094964974 -1.581259e+20
-0.04306493 0.032482345 0.20642729 -0.99856168 0.028931573 0.045139719 -1.581259e+20
-0.038976226 0.033686511 0.21463197 -0.93747693 0.077222906 0.33937225 -1.581259e+20
-0.031935155 0.026782811 0.21550888 -1 0 0 -1.5812599e+20
0.030653674 0.033709407 0.21362564 0.98898989 0.030401725 0.14482668 -1.581259e+20
0.034896016 0.032443911 0.20686576 0.99319726 0.074449688 0.089534685 -1.581259e+20
-0.042515799 0.052575286 0.20565368 -0.99385065 0.099390633 0.048809197 -1.5812592e+20
-0.038537946 0.056193821 0.21247867 -0.96968448 0.071701907 0.23360407 -1.581259e+20
-0.032607637 0.061482549 0.22040348 -0.83288461 -0.30130544 0.46423954 -1.5812601e+20
0.0243547 0.063445322 0.22162633 0.81088948 0.11630164 0.57352614 -1.5812599e+20
0.030007299 0.055666734 0.21262573 0.96738845 0.066868141 0.24431174 -1.581259e+20
0.034525175 0.053716525 0.20612781 0.99415815 0.098879762 0.043270614 -1.5812592e+20
-0.04246074 0.067628682 0.2063517 -0.98597652 0.13084239 0.10358914 -1.5812599e+20
-0.036917042 0.077440053 0.21000926 -0.97396523 0.14468913 0.17451876 -1.581259e+20
-0.031872451 0.080957465 0.21958737 -0.84356153 0.18424454 0.50443816 -1.5812592e+20
0.023325605 0.080456153 0.22046447 0.83399373 0.201739 0.51357156 -1.5812592e+20
0.028647771 0.077232286 0.20979364 0.97411752 0.14917713 0.16982692 -1.581259e+20
0.034267735 0.071073554 0.20444202 0.99129909 0.13112828 0.011464732 -1.5812599e+20
-0.034953836 0.097737446 0.20640919 -0.94472599 0.32275343 0.057645217 -1.581259e+20
-0.030028988 0.10074817 0.21329688 -0.91446108 0.12562783 0.38467991 -1.581259e+20
-0.023731517 0.1042856 0.2209648 -0.85916716 -0.046227779 0.50960261 -1.5812597e+20
0.015413663 0.10497148 0.22191688 0.86513132 -0.045399882 0.49948633 -1.5812596e+20
0.02166524 0.10075395 0.21335587 0.92351931 0.1062122 0.36855257 -1.581259e+20
0.026633741 0.097952515 0.20669308 0.96336865 0.25621641 0.079208143 -1.581259e+20
-0.034189351 0.11820833 0.20424278 -0.99433106 0.10544986 0.013640597 -1.5812594e+20
-0.029503066 0.12285285 0.21096523 -0.9540813 0.094438203 0.28427154 -1.581259e+20
-0.022547837 0.12496638 0.21923766 -0.7280587 0.12030444 0.67487586 -1.5812592e+20
-0.012443059 0.1231252 0.20954444 -0.026076511 0.90737003 -0.41952309 -1.5812601e+20
-0.0039953059 0.11989137 0.20989859 0.08342246 0.96167564 -0.26119083 -1.5812599e+20
0.0046608355 0.12350586 0.21062444 -0.52940369 0.7467308 -0.40264723 -1.5812597e+20
0.013860684 0.12403453 0.2190143 0.72286773 0.14113234 0.67641985 -1.5812592e+20
0.021316981 0.12278233 0.21039392 0.95733994 0.09485697 0.27295116 -1.581259e+20
0.026165444 0.11957386 0.20497675 0.99275231 0.11360005 0.039216548 -1.5812594e+20
-0.027682221 0.14132878 0.207929 -0.93240905 0.32309535 0.16193388 -1.581259e+20
-0.021140631 0.14601056 0.21330413 -0.40601435 0.82560951 0.39181787 -1.581259e+20
-0.013235569 0.14848533 0.21651456 0.19044976 0.97729367 -0.092875592 -1.581259e+20
-0.0043591494 0.14782846 0.21830541 0.17076619 0.84778279 -0.50209874 -1.5812592e+20
0.0054962342 0.14788759 0.21523847 -0.33625829 0.93916112 -0.070047766 -1.581259e+20
0.012770016 0.1462611 0.21326195 0.42391968 0.8167243 0.39147615 -1.581259e+20
0.0193443 0.14126883 0.20814703 0.91496783 0.3625153 0.17724703 -1.581259e+20
-0.01857641 -0.067385346 0.22483833 -0.43910661 -0.67025286 0.59828621 -1.5812599e+20
-0.012049813 -0.067783162 0.22619559 -0.22301303 -0.77260888 0.59442466 -1.5812597e+20
-0.0040535214 -0.068136416 0.22657919 -0.0080247875 -0.82230216 0.56899458 -1.5812596e+20
0.003798055 -0.067661777 0.22622108 0.21409743 -0.76931864 0.60192293 -1.5812599e+20
0.009890914 -0.067679614 0.22462691 0.36493111 -0.71564394 0.59554935 -1.5812599e+20
-0.026592672 -0.050331425 0.22562876 -0.71000391 -0.23346536 0.66437072 -1.5812596e+20
-0.020500196 -0.05459366 0.22822998 -0.5357824 -0.26380649 0.80208683 -1.581259e+20
-0.012702527 -0.055799063 0.23141663 -0.29131401 -0.29174933 0.91105348 -1.581259e+20
-0.0041995598 -0.055898268 0.23262416 -0.010588428 -0.30158243 0.9533813 -1.581259e+20
0.0043162261 -0.055944841 0.23134467 0.28225523 -0.29702309 0.91220027 -1.581259e+20
0.011752091 -0.055112254 0.22782029 0.53061104 -0.29209074 0.79569781 -1.581259e+20
0.018741725 -0.048908994 0.22578718 0.58409137 -0.27608773 0.76329076 -1.5812596e+20
-0.033953495 -0.027132422 0.22489567 -0.71062493 -0.11852377 0.6935159 -1.5812599e+20
-0.028477255 -0.032769881 0.22801773 -0.7060225 -0.17185245 0.68702179 -1.581259e+20
-0.020705273 -0.033396862 0.23327003 -0.48703992 -0.17456384 0.85575676 -1.581259e+20
-0.012733307 -0.032869656 0.23669952 -0.25499445 -0.17366736 0.95121896 -1.581259e+20
-0.0045803329 -0.033766732 0.2375862 -0.012574473 -0.17580666 0.98434436 -1.581259e+20
0.0041675922 -0.033342496 0.23670012 0.24087194 -0.17428795 0.95477974 -1.581259e+20
0.012636156 -0.033796169 0.23304845 0.48710382 -0.17677557 0.85526627 -1.581259e+20
0.020244949 -0.032386061 0.22786033 0.73456913 -0.18310827 0.65336025 -1.581259e+20
0.026598373 -0.028275713 0.22423159 0.76163751 -0.12626889 0.63558203 -1.5812601e+20
-0.035221145 -0.0093348389 0.22552407 -0.83217251 -0.091467567 0.54692107 -1.5812592e+20
-0.029435096 -0.011018769 0.23070015 -0.70468277 -0.10355309 0.70192516 -1.581259e+20
-0.020981519 -0.0111855 0.23646474 -0.41639191 -0.038444221 0.90837204 -1.581259e+20
-0.012748648 -0.011099216 0.23916782 -0.20440683 0.054690924 0.97735703 -1.581259e+20
-0.0041250237 -0.011040771 0.23988476 -0.0032959881 0.067361176 0.99772316 -1.581259e+20
0.0044832109 -0.011327903 0.2390357 0.19316636 0.035134196 0.98053676 -1.581259e+20
0.012480328 -0.011598584 0.23594813 0.31825027 -0.050201219 0.94667667 -1.581259e+20
0.021172063 -0.010957677 0.23036224 0.6782288 -0.10794458 0.72687942 -1.581259e+20
0.026582979 -0.0092922021 0.22622345 0.82036555 -0.096068189 0.563712 -1.5812594e+20
-0.035535876 0.011745207 0.22679386 -0.80748075 -0.021236444 0.58951151 -1.581259e+20
-0.02956363 0.010918088 0.23247442 -0.67276353 -0.024393473 0.73945534 -1.581259e+20
-0.020887436 0.011109125 0.23674837 -0.21501034 -0.0044283085 0.97660172 -1.581259e+20
-0.012236862 0.01100134 0.23719026 0.083908901 -0.010488613 0.99641824 -1.581259e+20
-0.003747083 0.010601682 0.23734258 -0.1168233 -0.0098352944 0.99310404 -1.581259e+20
0.0045542656 0.011025362 0.23741905 -0.031891443 -0.021260962 0.99926519 -1.581259e+20
0.012469698 0.011253275 0.23691663 0.059943072 -0.0027939221 0.99819791 -1.581259e+20
0.021042006 0.010968508 0.2323591 0.6619854 -0.023769783 0.74913979 -1.581259e+20
0.027272226 0.011461212 0.22691518 0.80408168 -0.021716548 0.59412199 -1.581259e+20
-0.035400715 0.03301825 0.22661401 -0.81475621 0.043146852 0.57819605 -1.581259e+20
-0.02942491 0.03321119 0.23227504 -0.67233986 0.043986917 0.73893458 -1.581259e+20
-0.021218542 0.033295657 0.2374734 -0.47116461 -0.0027458889 0.88204104 -1.581259e+20
-0.012753231 0.033145398 0.23976235 -0.097286895 -0.044663429 0.99425375 -1.581259e+20
-0.0041895937 0.03381243 0.24084172 -0.10878673 -0.18524227 0.9766528 -1.581259e+20
0.0042817411 0.033927355 0.24008898 0.2020694 0.028045164 0.97896957 -1.581259e+20
0.012704052 0.033093687 0.23731484 0.32744822 -0.030694934 0.94437039 -1.581259e+20
0.02124336 0.032909445 0.23217036 0.66564327 0.043054026 0.74502707 -1.581259e+20
0.027203389 0.033485625 0.22669657 0.80426794 0.044692822 0.59258384 -1.581259e+20
-0.034972087 0.052381121 0.22570299 -0.81506062 0.091427639 0.57211637 -1.5812594e+20
-0.029436057 0.055621281 0.23007198 -0.67409354 0.082738757 0.7339974 -1.581259e+20
-0.021086236 0.055471964 0.23621123 -0.51594168 0.12418134 0.84757489 -1.581259e+20
-0.012814527 0.054976564 0.23984616 -0.23218384 0.059711535 0.97083741 -1.581259e+20
-0.0044245911 0.055797905 0.24084817 -0.056276102 0.057015147 0.996786 -1.581259e+20
0.0041297213 0.055375628 0.23984592 0.23440008 0.081971511 0.96867806 -1.581259e+20
0.012511397 0.055507425 0.23575288 0.53041273 0.08530318 0.84343678 -1.581259e+20
0.020924069 0.055274263 0.22958782 0.55489159 0.17332022 0.81366795 -1.581259e+20
0.026365191 0.052844565 0.22633651 0.76672184 0.074935675 0.637591 -1.5812594e+20
-0.034934934 0.071199819 0.22423846 -0.84010297 0.1370766 0.52482098 -1.5812599e+20
-0.028551169 0.076752707 0.22758083 -0.71593946 0.14945136 0.6819787 -1.581259e+20
-0.020923605 0.077628061 0.23286332 -0.55129039 0.13399056 0.82348382 -1.581259e+20
-0.012625478 0.077929072 0.23634104 -0.26366234 0.16029692 0.95120293 -1.581259e+20
-0.0039629848 0.077684492 0.23739032 -0.020556549 0.13200544 0.99103582 -1.581259e+20
0.0043298458 0.076594301 0.23652051 0.25244999 0.14231537 0.95708698 -1.581259e+20
0.012285653 0.078046143 0.23292254 0.49463528 0.12540147 0.86000603 -1.581259e+20
0.020298922 0.076484472 0.22767769 0.64093041 0.13394874 0.75582141 -1.581259e+20
0.026142074 0.073890358 0.2248608 0.79595745 0.13540804 0.59001386 -1.5812601e+20
-0.026678888 0.095969856 0.2257807 -0.63963521 0.44166467 0.62912565 -1.5812594e+20
-0.020664187 0.099886328 0.22847846 -0.57461298 0.084055454 0.81409746 -1.581259e+20
-0.012928483 0.099527426 0.23184454 -0.16849278 0.19422171 0.96637887 -1.581259e+20
-0.004404956 0.099530898 0.23230833 -0.0054863542 0.13751002 0.99048519 -1.581259e+20
0.0042368178 0.099828951 0.23183523 0.063205004 0.16574191 0.98414171 -1.581259e+20
0.012355781 0.099743627 0.2284317 0.57312697 0.075362571 0.81599396 -1.581259e+20
0.018295849 0.094610512 0.2258717 0.46143508 0.74847627 0.47629929 -1.5812596e+20
-0.026021244 0.11729828 0.22433138 -0.84236759 0.012415873 0.53876036 -1.5812601e+20
-0.020472212 0.12148552 0.22682895 -0.59607154 0.12630564 0.79293483 -1.581259e+20
-0.012672446 0.12245298 0.22995661 -0.23216406 0.11423119 0.96594572 -1.581259e+20
-0.0045645661 0.12252281 0.23052481 -0.0048256679 0.052687809 0.99859941 -1.581259e+20
0.0041905809 0.12258231 0.22986069 0.21800616 0.10702295 0.9700616 -1.581259e+20
0.011881773 0.12167636 0.2269965 0.57058686 0.12826048 0.81115961 -1.581259e+20
0.017463526 0.11833247 0.22557457 0.74484926 0.076142721 0.66287392 -1.5812601e+20
-0.018679908 0.13852963 0.22541919 -0.54370141 0.24422017 0.80296034 -1.5812596e+20
-0.012511151 0.14149435 0.22643368 -0.33730569 0.29550132 0.89381427 -1.581259e+20
-0.0041609579 0.14310488 0.22723027 -0.003911112 0.39949289 0.91672796 -1.581259e+20
0.0039528385 0.14162105 0.22660737 0.30730024 0.35683003 0.88217849 -1.581259e+20
0.010278435 0.13886364 0.22556292 0.51913619 0.28507224 0.80574894 -1.5812596e+20
