# .PCD v0.7 - Point Cloud Data file format
VERSION 0.7
FIELDS x y z normal_x normal_y normal_z curvature
SIZE 4 4 4 4 4 4 4
TYPE F F F F F F F
COUNT 1 1 1 1 1 1 1
WIDTH 519
HEIGHT 1
VIEWPOINT 0 0 0 1 0 0 0
POINTS 519
DATA ascii
-0.027907919 -0.046496514 -0.00089029223 -0.14031568 -0.29979968 -0.94362688 -6.4939286e-08
-0.02064372 -0.046995576 -0.0012923479 -0.0098453918 -0.16325767 -0.98653436 -6.4939286e-08
-0.012799377 -0.046810161 -0.0011683987 0 -0.14416583 -0.98955357 -6.4939286e-08
-0.0039249491 -0.047343548 -0.0010407451 0 -0.20365608 -0.97904253 -6.4939286e-08
0.0056848587 -0.047816653 -0.00081946253 0 -0.22064503 -0.97535414 -6.4939286e-08
0.012868777 -0.047141772 -0.0012418441 0 -0.13832757 -0.99038655 -6.4939286e-08
0.020970017 -0.047058664 -0.0012276545 0.0086021265 -0.15303962 -0.9881826 -6.4939286e-08
0.028599381 -0.046119161 -0.001283966 0.15335925 -0.25678891 -0.95422238 -6.4939286e-08
-0.035302479 -0.030934537 -0.00084664178 -0.64300025 -0.021415379 -0.76556641 -6.4939286e-08
-0.029255878 -0.034137342 -0.0010873557 -0.050646707 -0.018283485 -0.99854922 -6.4939286e-08
-0.021229653 -0.033855818 -0.00093353109 0 0 -1 -6.4939286e-08
-0.012341838 -0.034191653 -0.00093247794 0 0 -1 -6.4939286e-08
-0.0037864922 -0.033811539 -0.00085833942 0 0 -1 -6.4939286e-08
0.0039030944 -0.034472559 -0.0010721321 0 0 -1 -6.4939286e-08
0.012431016 -0.034031745 -0.00092769484 0 0 -1 -6.4939286e-08
0.021438193 -0.033684753 -0.00094314886 0 0 -1 -6.4939286e-08
0.029495971 -0.033955213 -0.00084149704 0.054959174 -0.014761866 -0.99837947 -6.4939286e-08
0.035059068 -0.031391762 -0.00086732075 0.57896292 -0.011850019 -0.81526768 -6.4939286e-08
-0.035036426 -0.017999887 -0.0011776835 -0.508838 0 -0.86086226 -6.4939286e-08
-0.02892185 -0.012357378 -0.0011365946 -0.076867722 0.01128057 -0.99697745 -6.4939286e-08
-0.020987626 -0.011491905 -0.00091749517 0 0 -1 -6.4939286e-08
-0.012143067 -0.011443831 -0.00094454241 0 0 -1 -6.4939286e-08
-0.0035375725 -0.011057141 -0.00081914914 0 0 -1 -6.4939286e-08
0.0041611423 -0.011414443 -0.0010491216 0 0 -1 -6.4939286e-08
0.012380783 -0.011009067 -0.00097206538 0 0 -1 -6.4939286e-08
0.021455508 -0.01145243 -0.00093425444 0 0 -1 -6.4939286e-08
0.029062632 -0.012496014 -0.0008704536 0.10028674 0.020145001 -0.99475461 -6.4939286e-08
0.034416735 -0.014956713 -7.417798e-05 0.57521683 0.072708905 -0.81476313 -6.4939286e-08
-0.028633358 0.011795421 -0.0011637677 -0.14143001 0 -0.98994821 -6.4939286e-08
-0.021140331 0.010721511 -0.00093668426 0 0 -1 -6.4939286e-08
-0.012213457 0.011276545 -0.00093497016 0 0 -1 -6.4939286e-08
-0.0035742847 0.011213711 -0.00078704813 0 0 -1 -6.4939286e-08
0.004236198 0.01087137 -0.00099246064 0 0 -1 -6.4939286e-08
0.012725173 0.011495352 -0.00091572711 0 0 -1 -6.4939286e-08
0.02182983 0.010783002 -0.00089416234 0 0 -1 -6.4939286e-08
0.028733056 0.012022329 -0.00086922542 0.13469638 1.0536024e-06 -0.99088687 -6.4939286e-08
-0.033873022 0.034113586 -0.0010268539 -0.76111484 0 -0.64861721 -6.4939286e-08
-0.028625341 0.033766918 -0.001126548 -0.12922794 0 -0.99161488 -6.4939286e-08
-0.021596309 0.033507928 -0.00096842129 0 0 -1 -6.4939286e-08
-0.012662794 0.034013413 -0.00093575876 0 0 -1 -6.4939286e-08
-0.0038201793 0.033750325 -0.00083386054 0 0 -1 -6.4939286e-08
0.0040429658 0.033658713 -0.0010788774 0 0 -1 -6.4939286e-08
0.012363646 0.033989616 -0.0008742729 0 0 -1 -6.4939286e-08
0.021072295 0.03394857 -0.00091863016 0 0 -1 -6.4939286e-08
0.028552223 0.033107344 -0.00098022714 0.16585855 7.547647e-07 -0.98614955 -6.4939286e-08
-0.034238935 0.050963819 -0.00054217875 -0.76111484 0 -0.64861721 -6.4939286e-08
-0.028356006 0.056248646 -0.0012213282 -0.12575674 0.007741244 -0.99203092 -6.4939286e-08
-0.020951835 0.056472551 -0.00093386706 0 0 -1 -6.4939286e-08
-0.012203197 0.055958644 -0.00091406971 0 0 -1 -6.4939286e-08
-0.0036602903 0.05665179 -0.00090179988 0 0 -1 -6.4939286e-08
0.0042035626 0.056548793 -0.001050622 0 0 -1 -6.4939286e-08
0.012771284 0.055989843 -0.00093546929 0 0 -1 -6.4939286e-08
0.021858791 0.056898996 -0.00098171516 0 0 -1 -6.4939286e-08
0.028821763 0.055771597 -0.00084279553 0.14532301 0.011229956 -0.98932052 -6.4939286e-08
-0.027675793 0.070991836 -0.0010035299 -0.27783307 0.26815054 -0.92244458 -6.4939286e-08
-0.02069883 0.072255813 -0.00086270383 -0.05960026 0.13398448 -0.98918957 -6.4939286e-08
-0.012298432 0.073273286 -0.00096603198 -0.019258872 0.10260396 -0.99453586 -6.4939286e-08
-0.0038650827 0.074136607 -0.00078686344 -0.0056998599 0.094797045 -0.9954803 -6.4939286e-08
0.0042959144 0.07404016 -0.0009395064 0.0046626851 0.10164136 -0.99481016 -6.4939286e-08
0.012529074 0.073546737 -0.000994578 0.016337652 0.089024097 -0.9958955 -6.4939286e-08
0.02110084 0.072226629 -0.00080496445 0.064842492 0.14010867 -0.98801059 -6.4939286e-08
0.027592834 0.070199847 -0.00099224178 0.22987463 0.2030493 -0.95180291 -6.4939286e-08
-0.034847938 -0.046580873 0.015872523 -0.79370672 -0.6021623 -0.086198658 -6.4939286e-08
-0.029440375 -0.04817893 0.013245923 -0.48197851 -0.86636686 -0.13078691 -6.4939343e-08
-0.021010539 -0.049925946 0.012530435 -0.12921974 -0.96459389 -0.22991501 -6.4939378e-08
-0.012496062 -0.050210055 0.012604143 -0.022450235 -0.91108274 -0.41161168 -6.4939385e-08
-0.003977567 -0.050567389 0.013191189 -0.020497289 -0.88304198 -0.46884629 -6.49394e-08
0.0043400237 -0.050558828 0.013072353 0.020679144 -0.86718488 -0.49755666 -6.4939378e-08
0.012450373 -0.050230138 0.012821875 0.050525527 -0.91446114 -0.40150702 -6.4939385e-08
0.021056078 -0.049871277 0.012640239 0.14482474 -0.96614069 -0.21353698 -6.4939378e-08
0.029408887 -0.048182212 0.012518562 0.47809675 -0.86012459 -0.17778979 -6.4939357e-08
0.03470201 -0.046468709 0.017016023 0.79477727 -0.59974122 -0.092949823 -6.4939286e-08
-0.036326475 -0.033624593 0.013406718 -0.98927516 -0.067469575 -0.12954739 -6.4939584e-08
-0.031088106 -0.035714153 0.0036139106 -0.48310935 -0.1627335 -0.86030418 -6.4939286e-08
-0.021101594 -0.032964312 0.0011441945 0 0 -1 -6.4939286e-08
-0.012877699 -0.033309501 0.0013293052 0 0 -1 -6.4939286e-08
-0.0038989198 -0.033448383 0.0013503665 0 0 -1 -6.4939286e-08
0.0049413242 -0.033483673 0.001274885 0 0 -1 -6.4939286e-08
0.012648682 -0.033405855 0.0012250171 0 0 -1 -6.4939286e-08
0.020639494 -0.033333413 0.0013367492 0 0 -1 -6.4939286e-08
0.030622134 -0.033924591 0.0035394798 0.43601331 -0.087091565 -0.89571619 -6.4939286e-08
0.036736611 -0.033668727 0.013082361 0.98706746 -0.07742928 -0.14036551 -6.4939591e-08
-0.036031324 -0.013321346 0.013424229 -0.97685736 0.15438667 -0.14803536 -6.4939542e-08
-0.031351082 -0.0081206644 0.007376302 -0.83642393 0.017119767 -0.54781562 -6.4939414e-08
-0.021306941 -0.011123038 0.0012602203 0 0 -1 -6.4939286e-08
-0.012938401 -0.011223231 0.0013713951 0 0 -1 -6.4939286e-08
-0.0039889319 -0.011043036 0.0013019714 0 0 -1 -6.4939286e-08
0.0048195058 -0.01124646 0.001398376 0 0 -1 -6.4939286e-08
0.012762735 -0.010705848 0.0012230105 0 0 -1 -6.4939286e-08
0.021249637 -0.011223449 0.0012067655 0 0 -1 -6.4939286e-08
0.031220544 -0.008845171 0.0063989898 0.78002876 0.024955923 -0.62524581 -6.4939286e-08
0.036340766 -0.012543078 0.013433873 0.97871161 0.14861736 -0.14155082 -6.4939563e-08
-0.035504017 0.01113116 0.015825396 -0.99055523 0.001735513 -0.13710321 -6.4939428e-08
-0.031470086 0.011279114 0.0084222062 -0.85570586 -0.088371754 -0.50986075 -6.4939528e-08
-0.020475712 0.010710708 0.0012616139 0 0 -1 -6.4939286e-08
-0.012879055 0.010980012 0.0012874764 0 0 -1 -6.4939286e-08
-0.0036698186 0.010743629 0.0012887811 0 0 -1 -6.4939286e-08
0.0049957875 0.011061873 0.0013405698 0 0 -1 -6.4939286e-08
0.01287458 0.011011695 0.0011507387 0 0 -1 -6.4939286e-08
0.020649124 0.010782531 0.0013362514 0 0 -1 -6.4939286e-08
0.031221872 0.010906773 0.0076239482 0.82794946 -0.096836381 -0.55237895 -6.4939435e-08
0.0353643 0.011363338 0.014135114 0.99019122 -0.007180783 -0.13953422 -6.4939528e-08
-0.035178225 0.032741755 0.015141525 -0.99123555 0.070642821 -0.11163139 -6.4939329e-08
-0.031495027 0.034419525 0.0093221301 -0.94137716 0.012305717 -0.33713144 -6.4939542e-08
-0.021492599 0.034128241 0.0011521504 0 0 -1 -6.4939286e-08
-0.013074616 0.033763625 0.0012944423 0 0 -1 -6.4939286e-08
-0.0038847977 0.033614777 0.0012593314 0 0 -1 -6.4939286e-08
0.004748601 0.033818468 0.0013094429 0 0 -1 -6.4939286e-08
0.012673524 0.033491462 0.0011793644 0 0 -1 -6.4939286e-08
0.02058032 0.033645872 0.0013025644 0 0 -1 -6.4939286e-08
0.03121832 0.034000665 0.0084710764 0.90569866 0.022088086 -0.42334628 -6.4939492e-08
0.035134003 0.03340799 0.014540912 0.98688263 0.11304042 -0.1152581 -6.4939485e-08
-0.035209995 0.056344878 0.015829541 -0.99432504 0.039106965 -0.098936543 -6.4939314e-08
-0.031375516 0.056513622 0.0097358534 -0.93784201 0.043911908 -0.34427321 -6.4939563e-08
-0.020877277 0.056943294 0.0011825747 0 0 -1 -6.4939286e-08
-0.012401055 0.056608759 0.0013059862 0 0 -1 -6.4939286e-08
-0.0035537835 0.056520049 0.0013111662 0 0 -1 -6.4939286e-08
0.0048402548 0.056143165 0.0012683808 0 0 -1 -6.4939286e-08
0.012449928 0.056924373 0.0011432916 0 0 -1 -6.4939286e-08
0.020843167 0.05664169 0.0012800167 0 0 -1 -6.4939286e-08
0.031372085 0.056789208 0.0086281076 0.92042744 0.052260574 -0.38740432 -6.4939499e-08
0.034979209 0.056326818 0.014854035 0.99317753 0.035961151 -0.11092827 -6.4939464e-08
-0.034910236 0.069914319 0.016132386 -0.91684073 0.38958293 -0.087339453 -6.4939286e-08
-0.029153029 0.072969101 0.013095663 -0.73089403 0.66386193 -0.15837066 -6.4939464e-08
-0.021158366 0.07799162 0.010759715 -0.36653146 0.89197367 -0.26464608 -6.4939435e-08
-0.012753703 0.080228478 0.010983255 -0.16808599 0.93969232 -0.29786813 -6.4939442e-08
-0.0039480152 0.080857754 0.010380366 -0.046167478 0.94241464 -0.33124495 -6.4939442e-08
0.0045183194 0.080843315 0.010470495 0.050950222 0.94372219 -0.3267912 -6.4939421e-08
0.012721145 0.080450013 0.010803446 0.16351627 0.93969005 -0.30040818 -6.4939442e-08
0.021251438 0.078293011 0.010851335 0.36093435 0.8921594 -0.27162108 -6.4939442e-08
0.02945172 0.073553994 0.012968887 0.72251153 0.67535573 -0.147891 -6.4939471e-08
0.034378063 0.069295131 0.016141817 0.92625105 0.3668198 -0.086615682 -6.4939286e-08
-0.035777621 -0.047080047 0.03886598 -0.79763675 -0.60269725 -0.023055725 -6.4939286e-08
-0.029611353 -0.049942683 0.038031887 -0.43902695 -0.89676964 0.055312529 -6.4939385e-08
-0.020711325 -0.052622378 0.037796635 -0.11194082 -0.99371397 -0.0013111908 -6.4939385e-08
-0.012575715 -0.053565379 0.036937885 0.34575078 -0.93385845 -0.091459438 -6.4939393e-08
-0.004033816 -0.051397942 0.037644193 0.047200996 -0.98850584 0.14362547 -6.4939371e-08
0.0046316395 -0.051215932 0.037372667 -0.056010462 -0.98142999 0.18346107 -6.493935e-08
0.012589615 -0.054032728 0.037629403 -0.24855731 -0.96316659 -0.1026122 -6.4939364e-08
0.020816656 -0.052500825 0.03771447 0.24557285 -0.96836525 -0.044302136 -6.4939407e-08
0.029821936 -0.049913861 0.038203996 0.4377507 -0.89843464 0.034489214 -6.4939371e-08
0.035817809 -0.046983428 0.038286183 0.8059628 -0.5913564 -0.026859261 -6.4939286e-08
-0.037917577 -0.033938937 0.037857998 -0.99694198 -0.074607663 0.023246188 -6.4939599e-08
-0.033487409 -0.034550752 0.035523854 -0.98230195 -0.18189386 -0.044692758 -6.4939286e-08
0.03285709 -0.044559125 0.029318616 0.82155222 -0.56363845 -0.085812151 -6.4939286e-08
0.038320471 -0.034163553 0.037902366 0.9974153 -0.069992304 -0.016241059 -6.4939599e-08
-0.038055636 -0.011511914 0.038150501 -0.99981755 0.016444759 -0.0097178472 -6.4939591e-08
-0.033026777 -0.0072299093 0.027936082 -0.89798266 -0.44000494 0.0047711283 -6.4939286e-08
0.032738596 -0.0055198492 0.027585004 0.98002344 -0.14753851 -0.13336594 -6.4939286e-08
0.038385868 -0.01144871 0.037970472 0.99762577 0.016191293 -0.066937551 -6.4939599e-08
-0.037754744 0.011443413 0.038497835 -0.99779183 -0.0069439537 -0.066054821 -6.4939591e-08
-0.033072639 0.012033833 0.028445374 -0.65100271 -0.75870383 0.023749011 -6.4939286e-08
0.032629017 0.0098590208 0.027831016 0.3840889 -0.92048955 -0.07193514 -6.4939286e-08
0.038186613 0.011136753 0.038222674 0.99552006 -0.018799184 -0.092662118 -6.4939591e-08
-0.042156428 0.042898834 0.039029717 -1 0 0 -6.4939286e-08
-0.037672501 0.033954635 0.038518075 -0.99859232 0.0025967113 -0.052978311 -6.4939591e-08
-0.033034738 0.034661058 0.027842721 -0.99907184 -0.023123363 -0.036343578 -6.4939286e-08
0.032798801 0.034694947 0.028476542 0.98614591 1.1249822e-06 -0.16587965 -6.4939286e-08
0.038077619 0.033699669 0.038197741 0.99543303 0.01705556 -0.093926437 -6.4939591e-08
-0.042198371 0.052823145 0.043079615 -1 0 0 -6.4939286e-08
-0.03771713 0.056457486 0.038938489 -0.99721318 0.036338672 -0.065155946 -6.4939584e-08
-0.033025026 0.056309253 0.027858956 -0.9876802 0.041878801 -0.15077801 -6.4939286e-08
0.032683849 0.056640286 0.028199874 0.98459679 0.065216243 -0.16222242 -6.4939286e-08
0.038020276 0.056411739 0.038092043 0.99492896 0.034656249 -0.094420746 -6.4939591e-08
-0.036143485 0.07233385 0.040145174 -0.87860632 0.4740909 -0.057347171 -6.4939293e-08
-0.029799765 0.078096248 0.037994016 -0.62749815 0.76494688 -0.14526607 -6.4939485e-08
-0.020838013 0.083619118 0.038205456 -0.31663239 0.93368542 -0.16725835 -6.4939393e-08
-0.01270572 0.085663356 0.037753761 -0.16086285 0.97347701 -0.16268256 -6.4939357e-08
-0.0040662945 0.08661785 0.037821446 -0.031949501 0.98799217 -0.15116431 -6.4939385e-08
0.0044141146 0.086727254 0.038075637 0.047699258 0.98764884 -0.14924645 -6.493935e-08
0.012576429 0.085920028 0.037811551 0.15698297 0.97668874 -0.14640883 -6.4939364e-08
0.020973472 0.083966643 0.038633481 0.32031211 0.93231511 -0.16789459 -6.49394e-08
0.029879212 0.078739323 0.037486255 0.60826421 0.77737451 -0.16032313 -6.4939478e-08
0.036423374 0.072222881 0.039775632 0.87966955 0.46960571 -0.075179465 -6.4939343e-08
-0.035816871 -0.047089051 0.057564974 -0.77175653 -0.61833215 0.14851642 -6.4939286e-08
-0.029373428 -0.049356222 0.060019024 -0.51562291 -0.78981781 0.3321459 -6.4939286e-08
-0.021053022 -0.051128004 0.062464628 -0.30264813 -0.78092831 0.54640198 -6.4939357e-08
-0.012460454 -0.051230874 0.063240349 -0.053708781 -0.88309616 0.46610793 -6.493935e-08
-0.0039175111 -0.051308207 0.063140452 0.10592667 -0.88934427 0.44479913 -6.4939364e-08
0.0042397734 -0.051304121 0.063181601 0.063408367 -0.90029186 0.43064374 -6.4939314e-08
0.01240124 -0.051334802 0.063058749 0.052309122 -0.89944428 0.43389374 -6.493935e-08
0.020882459 -0.051044252 0.062901184 0.28293434 -0.80843204 0.51612574 -6.4939314e-08
0.02905629 -0.049313642 0.060428903 0.53080994 -0.76998466 0.35406825 -6.4939279e-08
0.035822697 -0.046921063 0.056893267 0.79686123 -0.5968923 0.093443222 -6.4939286e-08
-0.037712719 -0.03308041 0.060868137 -0.96745628 -0.14908269 0.20445751 -6.4939556e-08
-0.030325579 -0.035921969 0.070899606 -0.59239411 -0.3344208 0.73296106 -6.4939286e-08
-0.021679215 -0.037852552 0.07356441 -0.21406704 -0.33714473 0.91679269 -6.4939286e-08
-0.012575142 -0.039333612 0.074023597 -0.032750644 -0.37959063 0.92457461 -6.4939286e-08
-0.0042783078 -0.039743569 0.074089162 0.28861603 -0.37827587 0.87954998 -6.4939286e-08
0.0043023876 -0.04026515 0.073950335 0.29498431 -0.37551194 0.87862104 -6.4939286e-08
0.012900759 -0.040101215 0.073907293 0.019743307 -0.39128187 0.92005903 -6.4939286e-08
0.021998314 -0.039084613 0.073869348 0.22047015 -0.34309801 0.91305894 -6.4939286e-08
0.030524384 -0.036480501 0.071226314 0.59152323 -0.34233925 0.73000288 -6.4939286e-08
0.037950378 -0.033305466 0.061157469 0.96737337 -0.12386288 0.22101279 -6.493957e-08
-0.042163819 -0.00027656555 0.050820529 -1 0 0 -6.4939286e-08
-0.038024683 -0.011256098 0.062522039 -0.99260771 -0.0048114704 0.12127128 -6.4939591e-08
-0.03212887 -0.012478285 0.073991105 -0.68883008 -0.031086162 0.72425598 -6.4939286e-08
0.031557951 -0.014749906 0.074228108 0.68952054 -0.066404268 0.72121549 -6.4939286e-08
0.03836941 -0.011190597 0.063438468 0.97897762 -0.0075718262 0.20382674 -6.4939599e-08
-0.037876822 0.011135305 0.062439043 -0.98151851 0.031724907 0.1887193 -6.4939577e-08
-0.0311641 0.013020427 0.073069423 -0.70466632 0.11925353 0.69944555 -6.4939286e-08
0.031530369 0.012975696 0.073535554 0.68894732 0.12385086 0.71415162 -6.4939286e-08
0.038120829 0.011295324 0.06267596 0.97609502 0.036014196 0.21433966 -6.4939584e-08
-0.037833508 0.033346236 0.060649015 -0.96672237 0.050818048 0.25072965 -6.4939556e-08
-0.029904271 0.034697935 0.071043745 -0.71595734 0.13733242 0.68450338 -6.4939286e-08
-0.022462701 0.036908887 0.074790388 -0.15271039 0.4942643 0.85579336 -6.4939286e-08
-0.015042489 0.04021823 0.075663134 0.016790034 0.33121103 0.9434073 -6.4939286e-08
-0.0039822757 0.038901538 0.073414467 0 0 1 -6.4939286e-08
0.0068198144 0.041115329 0.075677395 0 0.34130186 0.93995368 -6.4939286e-08
0.013518589 0.041605785 0.074634507 -0.22826593 0.14180368 0.96321666 -6.4939286e-08
0.021249359 0.037121426 0.07473392 0.17733936 0.18474638 0.96665376 -6.4939286e-08
0.030523008 0.034906067 0.071874008 0.73142207 0.13374987 0.66867983 -6.4939286e-08
0.038088541 0.03360999 0.060674682 0.96378672 0.052828524 0.26138923 -6.4939556e-08
-0.042193502 0.058220506 0.054866791 -0.99926203 0.038399789 0.00091729866 -6.4939286e-08
-0.037355449 0.056050394 0.058073953 -0.94545621 0.081497833 0.31538963 -6.4939492e-08
-0.029793713 0.056276008 0.06755963 -0.69102049 0.17180257 0.70212156 -6.4939371e-08
-0.021445069 0.05776247 0.072353512 -0.24087632 0.27059332 0.93207181 -6.4939286e-08
-0.012575365 0.058256727 0.073075883 -0.056828745 0.20722458 0.97664142 -6.4939286e-08
-0.0041535669 0.05990617 0.073050804 0.12452728 0.24159986 0.96235251 -6.4939286e-08
0.0041728583 0.059459459 0.073204152 0.21961977 0.25040349 0.94290262 -6.4939286e-08
0.0125376 0.059654046 0.073054321 0.095872872 0.25687987 0.96167618 -6.4939286e-08
0.021313468 0.058966219 0.072716139 0.24015893 0.31258121 0.91903031 -6.4939286e-08
0.02986433 0.056708392 0.068768822 0.66790402 0.18413673 0.72110879 -6.4939393e-08
0.037811216 0.05637021 0.058325659 0.9522357 0.08291433 0.29389191 -6.4939513e-08
-0.036431991 0.071964942 0.055827159 -0.85994881 0.46010217 0.22089362 -6.4939286e-08
-0.029285483 0.075783551 0.059272218 -0.55701762 0.66075039 0.50313044 -6.493935e-08
-0.020755155 0.078969188 0.061124455 -0.28379688 0.76564252 0.57727879 -6.493935e-08
-0.012598147 0.079849958 0.062469382 -0.12925403 0.75347126 0.64465058 -6.4939378e-08
-0.0038184559 0.080594175 0.062632576 0.016812172 0.76532573 0.6434235 -6.4939393e-08
0.0045107948 0.080647729 0.062635504 0.060245283 0.77274245 0.63185412 -6.4939378e-08
0.012694892 0.080023371 0.062653907 0.13370025 0.7568562 0.63976008 -6.4939378e-08
0.020983802 0.07892555 0.061796859 0.28128818 0.74407482 0.60599482 -6.4939371e-08
0.02928861 0.07674709 0.059455797 0.53369999 0.67204314 0.51334423 -6.4939364e-08
0.036427964 0.072486579 0.056400564 0.83049285 0.47487813 0.29115698 -6.4939286e-08
-0.028816819 -0.028200399 0.078189552 -0.44587857 -0.28859627 0.84729236 -6.4939286e-08
-0.021007538 -0.031162607 0.078743376 -0.15215477 -0.31387869 0.93719214 -6.4939286e-08
-0.012858614 -0.031381581 0.079696812 -0.15140784 -0.40817881 0.90025866 -6.4939286e-08
-0.0039778706 -0.030460479 0.081629112 0.073514573 -0.59138238 0.80303329 -6.4939286e-08
0.0044710902 -0.030952409 0.08065062 0.1146582 -0.56696248 0.81572497 -6.4939286e-08
0.012905878 -0.031751346 0.079635561 0.14863607 -0.39366728 0.90715677 -6.4939286e-08
0.020908779 -0.031023873 0.078761227 0.15011781 -0.31206504 0.93812579 -6.4939286e-08
0.028836591 -0.028975183 0.07806959 0.4458349 -0.29342705 0.84565473 -6.4939286e-08
0.034682542 -0.024640143 0.07638748 0.69484067 -0.17563683 0.69738662 -6.4939286e-08
-0.034660444 -0.013178819 0.077448994 -0.68570083 -0.029070934 0.72730267 -6.4939286e-08
-0.028976383 -0.01043452 0.079674937 -0.63994521 -0.030557642 0.76781279 -6.4939286e-08
-0.020700365 -0.011110922 0.083161965 -0.34096673 -0.13267365 0.93066609 -6.4939286e-08
-0.013298126 -0.011791524 0.091349237 -0.88343209 -0.29993939 0.35997787 -6.4939492e-08
-0.0048489147 -0.020613968 0.093471803 -0.32216507 -0.92888623 0.18270209 -6.4939286e-08
0.0050864141 -0.020271026 0.093618721 0.6311112 -0.74673742 0.20995712 -6.4939286e-08
0.013088168 -0.011448775 0.091856807 0.8891111 -0.29129797 0.35302547 -6.4939464e-08
0.020864796 -0.011247777 0.084345393 0.35598439 -0.13901685 0.92409384 -6.4939286e-08
0.029379224 -0.01097076 0.080227852 0.62318355 -0.038954031 0.78110486 -6.4939314e-08
0.034393664 -0.0084422296 0.077703767 0.68837124 0.024764156 0.72493571 -6.4939286e-08
-0.034157608 0.0087582991 0.077037096 -0.68052369 0.10937486 0.72451681 -6.4939286e-08
-0.028572222 0.010795192 0.078672916 -0.70595491 0.10806596 0.69996387 -6.4939286e-08
-0.021154569 0.010609089 0.081625961 -0.31908745 0.15097018 0.93562347 -6.4939286e-08
-0.012801051 0.0096411165 0.09044797 -0.7988354 0.39531282 0.45342001 -6.4939435e-08
-0.0045422171 0.017100424 0.091673657 -0.27505758 0.89728826 0.34527832 -6.4939286e-08
0.0047444501 0.016647408 0.092205547 0.35061559 0.89558685 0.27384833 -6.4939286e-08
0.01281044 0.010067116 0.091033399 0.78844738 0.40418625 0.46366394 -6.4939414e-08
0.021017276 0.010706252 0.083334036 0.34851938 0.15494572 0.92440575 -6.4939286e-08
0.029183172 0.010506604 0.079496063 0.66537464 0.11178938 0.73809195 -6.4939286e-08
0.034219924 0.0063791098 0.077004686 0.68425941 0.10830685 0.72115093 -6.4939286e-08
-0.027566496 0.029262867 0.077929512 -0.58759499 0.15428749 0.79430944 -6.4939286e-08
-0.02049231 0.03295131 0.079000875 -0.2164043 0.17805295 0.95993036 -6.4939286e-08
-0.01258272 0.033534881 0.080560952 -0.20668606 0.24390057 0.94751954 -6.4939286e-08
-0.0040355534 0.033319086 0.081697427 0.069061309 0.20256968 0.97682965 -6.4939286e-08
0.0045552962 0.033742748 0.081918828 0.12257883 0.18704134 0.97467428 -6.4939286e-08
0.012587619 0.032709185 0.081081338 0.22798064 0.32894546 0.91641676 -6.4939286e-08
0.02117678 0.032463122 0.079822965 0.1514997 0.18455407 0.97107559 -6.4939286e-08
0.027736202 0.031268466 0.077969849 0.574727 0.15638947 0.80326283 -6.4939286e-08
-0.020963136 0.049436323 0.078273594 -0.28697976 0.40525913 0.86799055 -6.4939286e-08
-0.012467613 0.05061451 0.079165958 -0.20884719 0.55473143 0.80539179 -6.4939286e-08
-0.0043304074 0.052163664 0.079046756 -0.0029557375 0.40186068 0.91569602 -6.4939286e-08
0.0046754666 0.051629983 0.079230823 0.027733551 0.48005342 0.87680078 -6.4939286e-08
0.012529336 0.052603949 0.078053281 0.1827243 0.28345776 0.94141573 -6.4939286e-08
0.021082548 0.051644437 0.077162616 0.19303931 0.21677133 0.95694619 -6.4939286e-08
0.026854867 0.048625123 0.076621436 0.46123055 0.15488288 0.87365758 -6.4939286e-08
-0.0024571738 -0.022690475 0.1057587 -0.15709779 -0.98295373 0.095510401 -6.4939286e-08
-0.017215004 -0.0023505688 0.11373264 -0.99489897 -0.10080448 0.0038018245 -6.4939286e-08
-0.012458744 -0.0087955212 0.1135134 -0.95051825 -0.30754358 0.043954413 -6.4939528e-08
-0.004308146 -0.018480597 0.11430691 -0.34918678 -0.91128886 0.21822281 -6.493935e-08
0.004716448 -0.017691033 0.11435651 0.68547016 -0.72016072 0.10723404 -6.4939343e-08
0.012342038 -0.0082493946 0.11360316 0.95504332 -0.29418221 0.03673017 -6.4939506e-08
0.01713831 -0.0020478666 0.11344798 0.99472135 -0.10254738 0.0036676105 -6.4939286e-08
-0.017184619 0.0039831866 0.11439867 -0.99845457 -0.054540128 0.010672987 -6.4939286e-08
-0.012857704 0.010368302 0.11439033 -0.95403337 0.28182837 -0.10194626 -6.4939556e-08
-0.0052038589 0.019247752 0.10896738 -0.50050646 0.7875492 -0.35952693 -6.4939286e-08
0.0055635553 0.019152585 0.10822151 0.54680115 0.76405847 -0.34237868 -6.4939286e-08
0.012806941 0.0101841 0.11498705 0.95119524 0.29326937 -0.096024372 -6.4939549e-08
0.017179795 0.0053146803 0.12040228 0.98824722 0.12712218 -0.084896587 -6.4939286e-08
-0.0099222148 0.023600835 0.12066291 -0.72710991 0.67308295 -0.13516873 -6.4939286e-08
-0.0034283253 0.025547817 0.11793541 -0.29063243 0.92609149 -0.2405982 -6.4939286e-08
0.0041473485 0.025263028 0.11832466 0.38374746 0.89605385 -0.22321607 -6.4939286e-08
0.0095106699 0.023942053 0.12112985 0.72937554 0.67233825 -0.12638244 -6.4939286e-08
-0.011718902 -0.005481733 0.13704665 -0.88684225 -0.43689016 0.15045826 -6.4939407e-08
-0.0043480466 -0.011400843 0.13924512 -0.47254688 -0.81898427 0.32552162 -6.4939371e-08
0.0046571246 -0.010989728 0.13893917 0.57900536 -0.77585775 0.25059441 -6.4939371e-08
0.011744121 -0.0053306818 0.13662696 0.8861295 -0.4369598 0.15440379 -6.4939385e-08
0.017280191 -0.0002592206 0.132155 0.98634046 -0.16247036 0.027126886 -6.4939286e-08
-0.017326126 0.011261347 0.14159815 -0.99966431 0.0022581322 -0.025810981 -6.4939286e-08
-0.013801283 0.011237093 0.13906789 -0.99617922 0.073706508 -0.046844032 -6.4939577e-08
-0.0080419304 0.020151597 0.13412276 -0.81858253 0.55155438 -0.16034466 -6.4939286e-08
0.0078788595 0.020767579 0.13051479 0.76534384 0.63067615 -0.1284381 -6.4939286e-08
0.013579201 0.011208397 0.13907366 0.99627221 0.073755525 -0.044742063 -6.4939577e-08
0.01731695 0.011898858 0.1419923 0.99817324 0.040113509 -0.045178391 -6.4939286e-08
-0.011647303 0.029906135 0.1445372 -0.86147803 0.41546187 -0.291971 -6.4939357e-08
-0.0044351108 0.033255551 0.13987257 -0.3932319 0.78725785 -0.47496706 -6.4939449e-08
0.0047805733 0.03304182 0.14029603 0.47641155 0.69327348 -0.54074371 -6.4939435e-08
0.011649676 0.029487131 0.14483376 0.88046736 0.42527831 -0.20956051 -6.4939314e-08
0.016857475 0.024296403 0.15183479 0.9809463 0.19403072 0.0098197535 -6.4939286e-08
-0.0093063544 0.050218757 0.15086229 -0.78121358 0.47185963 -0.4087224 -6.4939286e-08
-0.0040525622 0.049967233 0.14890613 -0.17769963 0.48691323 -0.85518324 -6.4939286e-08
0.0042251493 0.050291259 0.14960267 0.16491617 0.59124726 -0.78944874 -6.4939286e-08
0.0088790702 0.048225444 0.15009438 0.77829021 0.25318843 -0.57459539 -6.4939286e-08
-0.0034616149 -0.025708577 0.17562702 -0.18787633 -0.3546254 -0.9159385 -6.4939286e-08
0.0030683659 -0.026780574 0.17569022 0.28316259 -0.3717666 -0.88408631 -6.4939286e-08
0.008560597 -0.023408279 0.17668259 0.68860728 -0.30369806 -0.65847361 -6.4939286e-08
-0.010600655 -0.0054164785 0.16888902 -0.87952304 -0.40799609 -0.24490491 -6.4939286e-08
-0.0042370185 -0.0095639499 0.16628458 -0.41628683 -0.80203289 -0.42830887 -6.4939435e-08
0.0047725514 -0.0088550886 0.16646428 0.6295104 -0.68867499 -0.35978243 -6.4939421e-08
0.010839301 -0.0047227349 0.16825078 0.89044589 -0.40668556 -0.20423763 -6.4939286e-08
-0.017352086 0.014294309 0.16038725 -0.99886161 0.01011854 0.046616402 -6.4939286e-08
-0.013651656 0.010684583 0.16483198 -0.99313647 -0.11032329 0.038841479 -6.4939584e-08
-0.0084072649 0.00062146783 0.15764129 -0.87546593 -0.47877184 0.065855354 -6.4939286e-08
0.008079052 0.00061663985 0.16536641 0.82609206 -0.55874282 -0.073337667 -6.4939286e-08
0.013399079 0.010930943 0.16469346 0.99403626 -0.09784539 0.048147567 -6.4939577e-08
0.017349217 0.015292511 0.16023016 0.99969554 0.018050132 0.01682435 -6.4939286e-08
-0.012012396 0.032896552 0.16518717 -0.97623432 0.19308557 -0.098409906 -6.4939563e-08
-0.007524353 0.038117792 0.16339065 -0.99880832 0.011126241 -0.047519058 -6.4939286e-08
0.0075816493 0.038722165 0.16457713 0.99999869 0.0016155858 0.00022721122 -6.4939286e-08
0.011756382 0.032453746 0.16446882 0.97931558 0.19006976 -0.069386192 -6.4939556e-08
0.017189175 0.027374327 0.1764915 0.95566303 0.032938149 -0.29261452 -6.4939286e-08
-0.010541569 0.050464161 0.16775364 -0.8628282 0.35437557 -0.36047941 -6.4939286e-08
-0.0043406812 0.052203417 0.16514148 -0.23565952 0.96231979 -0.13566616 -6.49394e-08
0.004756222 0.051912103 0.16514134 0.2955533 0.95116216 -0.089099512 -6.4939407e-08
0.010444731 0.049975339 0.16570273 0.87373549 0.45906818 -0.16075669 -6.4939286e-08
-0.003322049 0.071165189 0.17571889 -0.28568423 0.37421939 -0.88223827 -6.4939286e-08
0.003007273 0.071357921 0.17615126 0.26825851 0.35638815 -0.89499992 -6.4939286e-08
-0.026712188 -0.02736772 0.19926259 -0.92662102 -0.10378202 -0.36139014 -6.4939286e-08
-0.020918474 -0.030616688 0.19468606 -0.74310058 -0.37977451 -0.55097437 -6.49394e-08
-0.012479857 -0.033734184 0.19055392 -0.47684157 -0.60098672 -0.64143354 -6.49394e-08
-0.004165886 -0.035967313 0.18901533 -0.12755823 -0.79070312 -0.59876329 -6.4939421e-08
0.0044555846 -0.035376247 0.18913127 0.42075744 -0.72733539 -0.54216814 -6.4939393e-08
0.012350045 -0.033654284 0.19114175 0.47134981 -0.59929621 -0.64704978 -6.4939378e-08
0.020809237 -0.030338362 0.19550422 0.77709866 -0.35094425 -0.52245176 -6.4939336e-08
0.026729692 -0.026965352 0.19856444 0.93691629 -0.10799182 -0.332454 -6.4939286e-08
-0.02628745 -0.011850134 0.19833118 -0.97254354 0.019863563 -0.23187171 -6.4939286e-08
-0.02124742 -0.010899758 0.19231407 -0.84876621 0.037831202 -0.52741319 -6.4939449e-08
-0.013276481 -0.011491691 0.18244268 -0.84906024 -0.11818817 -0.51490599 -6.4939336e-08
-0.0066619623 -0.017700881 0.17945829 -0.68156731 -0.2812489 -0.6755479 -6.4939286e-08
0.0067418814 -0.017666187 0.17944866 0.74133158 -0.27068934 -0.61412942 -6.4939286e-08
0.013178537 -0.011113659 0.18359524 0.83457386 -0.094148189 -0.54279149 -6.4939393e-08
0.021261346 -0.011061138 0.19358641 0.85755491 0.036474738 -0.5130977 -6.4939456e-08
0.026539097 -0.012265121 0.19900441 0.99224591 0.01013619 -0.12387589 -6.4939286e-08
-0.026523238 0.010538987 0.19944887 -0.95161706 0.028755909 -0.3059378 -6.4939286e-08
-0.020901214 0.012065464 0.19128306 -0.88967437 -0.00041623024 -0.45659539 -6.4939513e-08
-0.014747995 0.0095310342 0.1827087 -0.93918061 -0.099079154 -0.32882097 -6.4939286e-08
0.014528343 0.010788982 0.18371911 0.89458263 -0.027906943 -0.44603032 -6.4939343e-08
0.020750225 0.012014559 0.19294073 0.92867613 0.011808368 -0.37070376 -6.4939485e-08
0.026674738 0.010559067 0.19968742 0.97601074 0.020793989 -0.21672729 -6.4939286e-08
-0.026337853 0.033026509 0.20011824 -0.85558498 0.047957215 -0.51543611 -6.4939286e-08
-0.020519493 0.03277367 0.19232893 -0.84197164 0.1272922 -0.52429032 -6.4939478e-08
-0.014581596 0.035061669 0.18433544 -0.93492401 0.11599144 -0.33535513 -6.4939343e-08
-0.0079420824 0.044221997 0.17853191 1 0 0 -6.4939286e-08
0.0075956583 0.040355563 0.17873006 -1 0 0 -6.4939286e-08
0.014341816 0.034430943 0.18455265 0.93137276 0.12090343 -0.34340531 -6.4939421e-08
0.02029188 0.032915335 0.19374464 0.86765492 0.12094922 -0.48223045 -6.4939464e-08
0.026660122 0.033456165 0.20112926 0.88033181 0.044281788 -0.47228697 -6.4939286e-08
-0.026316261 0.055023268 0.20122638 -0.85607201 -0.017034354 -0.51657587 -6.4939286e-08
-0.020700246 0.05593567 0.19653708 -0.76559341 0.076717585 -0.6387341 -6.4939393e-08
-0.012890943 0.056545377 0.18580385 -0.88913304 0.19618869 -0.41346392 -6.4939499e-08
-0.00429432 0.060249519 0.18043347 0.10556073 -0.046252307 -0.99333668 -6.4939286e-08
0.0053370688 0.059829809 0.18014327 0.6845935 0.091139786 -0.72320497 -6.4939286e-08
0.012805288 0.056202136 0.18660747 0.87915039 0.19718453 -0.43383509 -6.4939506e-08
0.020237995 0.055865232 0.19750021 0.76331902 0.083841234 -0.64055806 -6.4939357e-08
0.026751718 0.054051563 0.20146084 0.86103457 0.040113356 -0.506962 -6.4939286e-08
-0.025816372 0.073977701 0.2015723 -0.82411784 0.1085773 -0.55591428 -6.4939286e-08
-0.020474942 0.077518925 0.19892889 -0.68163371 0.2160275 -0.69907624 -6.4939286e-08
-0.012537248 0.078075051 0.19348136 -0.58484584 0.2775996 -0.76216394 -6.4939378e-08
-0.0041108257 0.07788486 0.18811801 -0.26927665 0.59579313 -0.75665087 -6.4939407e-08
0.0044520912 0.077452384 0.18824898 0.35384354 0.65164727 -0.67093265 -6.49394e-08
0.012647315 0.07778918 0.19429269 0.58883923 0.2278257 -0.77547657 -6.4939385e-08
0.019959135 0.07744053 0.19959182 0.70729822 0.18554388 -0.68213105 -6.4939286e-08
0.027104974 0.069778264 0.20200384 0.83018571 0.059504412 -0.55430216 -6.4939286e-08
-0.018798834 0.093800984 0.20160139 -0.57050604 0.24329354 -0.78443044 -6.4939286e-08
-0.012029347 0.098331079 0.19904831 -0.54785228 0.28422302 -0.78681326 -6.4939286e-08
-0.0039160233 0.1004199 0.19792162 -0.071216568 0.29352224 -0.95329583 -6.4939286e-08
0.0045133447 0.1003533 0.19866523 0.096160658 0.28171393 -0.95466763 -6.4939286e-08
0.011758609 0.097556166 0.19943473 0.48911071 0.29212213 -0.82184875 -6.4939286e-08
0.018106615 0.093162589 0.20066941 0.87353891 0.21003771 -0.43910566 -6.4939286e-08
-0.010392487 0.11834814 0.20230548 -0.63940048 0.078880005 -0.764817 -6.4939286e-08
-0.0038229206 0.11910867 0.20096752 0.085445635 0.1645831 -0.98265529 -6.4939286e-08
0.0043858779 0.1195747 0.20087522 0.15684323 0.2369132 -0.9587869 -6.4939286e-08
0.0099682389 0.11774953 0.20200245 -0.2048728 0.29509422 -0.93324518 -6.4939286e-08
-0.01049632 -0.045071065 0.21390274 -0.19877173 -0.97953588 0.031612575 -6.4939286e-08
-0.0032475512 -0.045408007 0.21432935 0.25305939 -0.9645555 0.074790843 -6.4939286e-08
0.0034948268 -0.045281272 0.21385719 0.062604018 -0.99771643 0.025350591 -6.4939286e-08
-0.027330831 -0.029130766 0.21197873 -0.99404985 -0.070985317 0.082620174 -6.4939321e-08
-0.021599801 -0.034278501 0.21670522 -0.82313353 -0.52941996 0.20534319 -6.493952e-08
-0.012674002 -0.041573536 0.21617042 -0.36917379 -0.91679192 0.15232605 -6.4939378e-08
-0.0038577802 -0.043414235 0.21509612 0.14279859 -0.98453599 0.10147691 -6.4939314e-08
0.0045192484 -0.043350033 0.21572538 0.20656843 -0.97198844 0.11210725 -6.4939314e-08
0.012685076 -0.041198108 0.21589845 0.3702904 -0.91720724 0.14702314 -6.4939364e-08
0.021522136 -0.033425625 0.21605997 0.84735906 -0.4998959 0.1791276 -6.4939528e-08
0.027051084 -0.028826846 0.21213473 0.9958266 0.0039047864 0.091182038 -6.4939286e-08
-0.026678728 -0.011220142 0.21266501 -0.99899703 -0.0041832351 0.04458246 -6.4939464e-08
-0.022685027 -0.011287745 0.21915422 -0.94865882 -0.027884306 0.31506965 -6.4939471e-08
0.022784997 -0.011455303 0.2177878 0.96359444 -0.023621457 0.26632309 -6.4939542e-08
0.026766796 -0.010880504 0.21257555 0.9995079 -0.0029306549 0.031230755 -6.4939314e-08
-0.026689945 0.011907516 0.21364772 -0.99971843 -0.0022168511 0.023627382 -6.4939471e-08
-0.023093801 0.010651341 0.21849613 -0.97510451 -0.021306455 0.22072013 -6.4939428e-08
0.023284353 0.010980758 0.21669509 0.9872852 -0.014890103 0.15825973 -6.493952e-08
0.026761333 0.011442943 0.21399526 0.99920231 -0.0037361062 0.03975952 -6.4939357e-08
-0.026685681 0.033710215 0.2148596 -0.99553722 -0.01343801 0.093408629 -6.4939478e-08
-0.023503488 0.033337194 0.21667536 -0.98330861 -0.016991036 0.18115018 -6.4939414e-08
0.023475455 0.033381388 0.21629639 0.99165422 -0.012613039 0.12830782 -6.4939492e-08
0.026689596 0.033273734 0.21503854 0.9974249 -0.020814888 0.06863194 -6.4939371e-08
-0.02820565 0.056838054 0.21619633 -0.99530214 -0.081165813 -0.052780598 -6.493957e-08
-0.02407846 0.054782748 0.21273613 -0.98615879 -0.10435059 -0.12884784 -6.4939286e-08
0.024008498 0.054210428 0.21036361 0.95863771 -0.1599417 -0.23544087 -6.4939286e-08
0.027670346 0.056968879 0.21699637 0.99772865 -0.065604761 -0.01528774 -6.4939563e-08
-0.027753528 0.077660263 0.21696103 -0.98487341 0.14981362 -0.087064676 -6.4939542e-08
-0.023071414 0.082254104 0.21123326 -0.89927793 0.23464653 -0.36910737 -6.49393e-08
-0.015239091 0.086810231 0.20312804 0.090599015 0.21520047 -0.97235823 -6.4939286e-08
0.016816258 0.089493334 0.20570149 -0.79149789 -0.057083186 0.6085003 -6.4939286e-08
0.02303526 0.081835113 0.21127048 0.91582274 0.194611 -0.35127646 -6.49394e-08
0.027427508 0.077158898 0.21741621 0.9838286 0.16814375 -0.061716776 -6.4939513e-08
-0.026122916 0.094901912 0.22052479 -0.98218173 0.18371496 -0.039595984 -6.4939286e-08
-0.02149467 0.10136797 0.21593598 -0.93856877 0.22607349 -0.26072875 -6.4939577e-08
-0.01353114 0.10566051 0.20622161 -0.63284785 0.15640678 -0.75831437 -6.4939286e-08
-0.0036942495 0.10973023 0.20425643 -0.36689824 0.086902447 -0.92619306 -6.4939286e-08
0.0046061552 0.10892904 0.20417175 0.24674393 0.090525948 -0.96484321 -6.4939286e-08
0.013791438 0.10510086 0.20662375 0.74025321 0.16219494 -0.65247065 -6.4939286e-08
0.021157686 0.10088123 0.21682581 0.95625299 0.19398029 -0.21897937 -6.4939577e-08
0.026216596 0.095489517 0.21889231 0.97649342 0.20539543 -0.065371573 -6.4939286e-08
-0.019747898 0.12216981 0.21965356 -0.97057503 0.19513871 -0.14108552 -6.4939499e-08
-0.013304808 0.12498254 0.21138211 -0.76680481 0.24088915 -0.59496462 -6.4939478e-08
-0.0042346739 0.12589683 0.20622458 -0.24625123 0.25444967 -0.93520892 -6.4939286e-08
0.0045198495 0.12562223 0.2065122 0.24696365 0.34455788 -0.90569794 -6.4939286e-08
0.013401217 0.12521529 0.2123718 0.78856671 0.23125109 -0.56981176 -6.4939499e-08
0.019493809 0.12141111 0.21995364 0.96030444 0.23684649 -0.14737409 -6.4939464e-08
-0.018493906 0.14202145 0.22269344 -0.97946727 0.16292456 -0.11874106 -6.4939286e-08
-0.012820188 0.14688432 0.21846968 -0.80541927 0.40042552 -0.4369888 -6.4939535e-08
-0.0041510137 0.14797321 0.21197166 -0.24401988 0.40266523 -0.88222164 -6.4939442e-08
0.0045055836 0.1483521 0.21230915 0.32340774 0.43127567 -0.842264 -6.49394e-08
0.012694466 0.14663462 0.21892878 0.82417488 0.37839177 -0.42137334 -6.4939542e-08
0.018507032 0.14205958 0.22201246 0.98360294 0.14082959 -0.11265945 -6.4939286e-08
-0.0093461163 0.15838239 0.22331551 -0.64943004 0.73419076 -0.1980017 -6.4939286e-08
-0.0032332926 0.16097379 0.22313195 -0.21518828 0.8368935 -0.50329244 -6.4939286e-08
0.0039012672 0.16100094 0.22334591 0.14870481 0.7485072 -0.64623821 -6.4939286e-08
0.0094682993 0.15955929 0.22389965 0.6657607 0.72885197 -0.15980478 -6.4939286e-08
-0.019479323 -0.028589165 0.23054844 -0.70159757 -0.20999677 0.68092746 -6.4939286e-08
-0.012440358 -0.031341031 0.23353888 -0.44242215 -0.35751584 0.8224628 -6.4939286e-08
-0.0038291633 -0.033451963 0.23472984 -0.076072417 -0.47560611 0.8763628 -6.4939321e-08
0.0042730761 -0.032647647 0.23501126 0.23580097 -0.42264321 0.87508327 -6.4939286e-08
0.012444475 -0.031447146 0.23296537 0.44706869 -0.3622528 0.8178646 -6.4939286e-08
0.019455524 -0.027915645 0.23048301 0.73063564 -0.13848366 0.668576 -6.4939286e-08
-0.0193645 -0.011306672 0.230296 -0.72413516 0.057117734 0.6872887 -6.4939286e-08
-0.012571229 -0.011556669 0.23420848 -0.46995354 0.017418487 0.8825193 -6.4939385e-08
-0.0036168082 -0.011550101 0.23715164 -0.016431069 -0.014602805 0.99975836 -6.493935e-08
0.0044100424 -0.012089835 0.23696828 0.15786156 0.0064870096 0.98743993 -6.4939286e-08
0.0126224 -0.011776417 0.23379403 0.48919448 -0.0036602188 0.87216699 -6.4939407e-08
0.019279733 -0.010949046 0.23012564 0.71979183 0.037464425 0.6931783 -6.4939286e-08
-0.020396821 0.012340494 0.23295207 -0.84937435 -0.10882442 0.51644975 -6.4939378e-08
-0.012796998 0.010706127 0.23851666 -0.45149034 -0.20280015 0.86892372 -6.4939364e-08
-0.0039679352 0.011438106 0.24144611 0.024585487 -0.16257624 0.98638964 -6.4939357e-08
0.004357982 0.011328309 0.2413041 0.24314465 -0.16961382 0.95504546 -6.4939286e-08
0.012789726 0.010922007 0.2382084 0.45935839 -0.18736011 0.86826617 -6.4939378e-08
0.020011436 0.011916865 0.23279637 0.8340531 -0.09921553 0.54268932 -6.4939364e-08
0.025406241 0.010328472 0.23144418 0.99606669 0.0082771387 -0.088219106 -6.4939286e-08
-0.025995731 0.043282092 0.22839588 -0.8779093 -0.044733528 0.47673285 -6.4939286e-08
-0.020661267 0.033906374 0.23408397 -0.83852261 -0.056644283 0.5419144 -6.4939442e-08
-0.012694278 0.034060922 0.24111933 -0.4439877 -0.067011468 0.89352357 -6.493935e-08
-0.0036996969 0.033896036 0.24370158 0.08664532 -0.066348448 0.99402744 -6.4939343e-08
0.0043893419 0.032985479 0.24365842 0.22652513 -0.041605704 0.97311628 -6.4939286e-08
0.012579678 0.033851676 0.24073114 0.45082423 -0.097589783 0.88726187 -6.4939385e-08
0.020312661 0.034150761 0.23397259 0.86241788 -0.062813163 0.50228471 -6.4939442e-08
0.025816619 0.040613711 0.22903113 0.92339212 -0.035861228 0.38217926 -6.4939286e-08
-0.026426807 0.057302818 0.23117834 -0.89779747 -0.058798965 0.43646583 -6.4939286e-08
-0.021369914 0.056286935 0.23599853 -0.76420349 -0.10163887 0.63691646 -6.4939449e-08
-0.012682704 0.055750381 0.24304442 -0.45764384 -0.083137244 0.88524032 -6.4939378e-08
-0.0037202258 0.056141846 0.24583825 0.0033458218 -0.091601141 0.99579012 -6.4939336e-08
0.0044676876 0.056273151 0.24575955 0.22657207 -0.089684561 0.96985662 -6.4939293e-08
0.012762679 0.056549065 0.2427544 0.47026554 -0.082544923 0.87865621 -6.4939371e-08
0.021280816 0.0560592 0.23577817 0.77652049 -0.10499052 0.62128329 -6.4939471e-08
0.026657872 0.057860896 0.2307979 0.89909548 -0.039863963 0.43593365 -6.4939286e-08
-0.026734795 0.076596998 0.23090376 -0.91718632 0.082201876 0.38988739 -6.4939286e-08
-0.021160632 0.079162359 0.23643443 -0.77790511 0.094098553 0.62129629 -6.4939464e-08
-0.012375459 0.079312392 0.24394804 -0.45465919 0.052450657 0.88911974 -6.4939385e-08
-0.003422356 0.078701913 0.24637143 -0.072057582 0.071264654 0.99485129 -6.4939336e-08
0.0044496288 0.07969404 0.24639688 0.11584064 0.029072016 0.99284226 -6.4939286e-08
0.012610734 0.078818209 0.24347316 0.50048423 0.070317872 0.86288518 -6.4939393e-08
0.021373659 0.078471601 0.23582873 0.7657637 0.099600911 0.63536251 -6.4939478e-08
0.026810421 0.075811781 0.23091008 0.91278249 0.1142824 0.3921321 -6.4939286e-08
-0.025625629 0.093886904 0.23030655 -0.92641336 0.13447125 0.35167593 -6.4939286e-08
-0.020203983 0.10001013 0.23328947 -0.82435805 0.15923718 0.54321021 -6.49394e-08
-0.012811557 0.10129698 0.24032059 -0.58581889 0.11450221 0.80231261 -6.4939414e-08
-0.0038583137 0.10181227 0.24361752 -0.061480429 0.040839672 0.99727243 -6.4939343e-08
0.0044919886 0.10175701 0.24371625 0.09443754 0.069395982 0.99310917 -6.4939314e-08
0.012720877 0.1014411 0.23971489 0.6350131 0.093530312 0.7668184 -6.4939435e-08
0.020359788 0.099684358 0.23304467 0.82889295 0.16581778 0.53426677 -6.4939378e-08
0.025822774 0.096387319 0.23048258 0.97074687 0.15795523 0.18083315 -6.4939286e-08
-0.018911131 0.12134622 0.23212729 -0.90946752 0.15430939 0.3860794 -6.4939286e-08
-0.012793291 0.12454754 0.23731557 -0.67854911 0.078520738 0.73034626 -6.4939456e-08
-0.0039086714 0.1240887 0.24251164 -0.17895226 0.046469793 0.98275965 -6.4939371e-08
0.0042085624 0.1239284 0.242338 0.1742907 0.080054797 0.9814347 -6.4939307e-08
0.012864842 0.12439088 0.23689346 0.72688854 0.13523886 0.6733079 -6.4939492e-08
0.018829642 0.12038293 0.23197345 0.88872927 0.21140926 0.40677559 -6.4939286e-08
-0.017858705 0.14208956 0.23121095 -0.92570227 0.15028974 0.34711424 -6.4939286e-08
-0.012599664 0.14564404 0.23494388 -0.77172369 0.29670408 0.56250262 -6.4939449e-08
-0.004327619 0.14760818 0.23951758 -0.28426594 0.38415164 0.87841928 -6.4939442e-08
0.004449822 0.14746019 0.23947823 0.26349747 0.36995074 0.89090157 -6.4939428e-08
0.012450647 0.14526063 0.23469092 0.78190303 0.28234667 0.55579489 -6.4939485e-08
0.018146664 0.14401045 0.23068032 0.92666507 0.23453069 0.29374707 -6.4939286e-08
-0.0087438226 0.15833509 0.23146883 -0.63746208 0.67480576 0.37185919 -6.4939286e-08
-0.0033728234 0.16071364 0.23090625 0.022477604 0.6727047 0.7395696 -6.4939286e-08
0.0035771856 0.1608606 0.23135658 -0.0018859053 0.74731648 0.66446555 -6.4939286e-08
0.0090776365 0.15814734 0.22887409 0.6987257 0.69219452 0.18069099 -6.4939286e-08
