# .PCD v0.7 - Point Cloud Data file format
VERSION 0.7
FIELDS x y z normal_x normal_y normal_z curvature
SIZE 4 4 4 4 4 4 4
TYPE F F F F F F F
COUNT 1 1 1 1 1 1 1
WIDTH 359
HEIGHT 1
VIEWPOINT 0 0 0 1 0 0 0
POINTS 359
DATA ascii
-0.0029577846 -0.058165438 -0.0058004842 -0.18393502 0.7975238 -0.57456398 -2.6875028e-33
0.001719574 -0.057916008 -0.0058847186 0.65081501 0.63158572 -0.42135423 -2.6874997e-33
-0.03264742 -0.004339294 -0.0016921302 0.72823334 0.16623405 0.66486281 -2.6874975e-33
-0.026998121 -0.0068283188 -0.0020177113 -0.30077714 -0.2364832 -0.92390954 -2.6874975e-33
-0.019175492 -0.0077462303 -0.0018873621 0 -0.24258809 -0.97012943 -2.6874988e-33
-0.01177124 -0.0082836552 -0.0018435434 0 -0.24250831 -0.97014928 -2.6874975e-33
-0.0042302976 -0.0079003247 -0.0018927994 0 -0.24258775 -0.97012949 -2.6874986e-33
0.003702885 -0.0080049373 -0.0017461716 0 -0.24255349 -0.97013807 -2.6874984e-33
0.011452523 -0.0076291342 -0.0018751464 0 -0.24254069 -0.97014123 -2.6874977e-33
0.019165633 -0.0076979799 -0.0017836352 0 -0.24257937 -0.97013158 -2.6874984e-33
0.026850276 -0.0058787116 -0.0020241472 0.0414658 0.20166394 0.97857666 -2.6874975e-33
0.031845018 -0.0040074633 -0.0013401485 -0.91381842 0.098509528 0.39399442 -2.6874975e-33
-0.032587402 0.0059986943 -0.0033627523 0.9307301 -0.10365731 0.35070872 -2.6874975e-33
-0.026887553 0.011086931 -0.0046522366 -0.6080662 0.34514105 -0.71493566 -2.6875039e-33
-0.019261045 0.012002824 -0.0052386052 -0.045004044 0.12786518 -0.99076992 -2.6875039e-33
-0.011522343 0.012662857 -0.0049979175 -0.0046932912 0.22765601 -0.97373027 -2.6875039e-33
-0.0038701622 0.012620761 -0.0052136648 -0.00032376539 0.19686227 -0.98043108 -2.6875041e-33
0.0037821054 0.012571439 -0.0051403958 -0.00033600637 0.21323253 -0.97700143 -2.6875037e-33
0.01130621 0.012674315 -0.0050907223 0.017975016 0.20630601 -0.97832239 -2.6875041e-33
0.019295085 0.011791624 -0.0050721937 0.081887327 0.1563248 -0.98430532 -2.6875037e-33
0.026331952 0.0097975731 -0.0040877252 0.73637491 0.67312908 -0.068185054 -2.6875026e-33
0.031572592 0.0058442857 -0.0027269751 -0.97554266 -0.20702252 0.073879667 -2.6874975e-33
0.0019124746 0.022518992 -0.00021231174 -0.00075357559 0.97015166 -0.24249791 -2.6874975e-33
-0.0028485996 -0.051537156 0.0072171693 -0.27687144 0.79952282 -0.53301543 -2.6875043e-33
0.0019075705 -0.051004298 0.007013564 0.95635152 0.24314052 -0.16209373 -2.6874991e-33
-0.018373698 -0.026163815 0.0080766687 -0.81148535 -0.54411632 -0.21314056 -2.6875019e-33
-0.011653738 -0.029304054 0.0074149142 -0.20669836 -0.78336549 -0.58618623 -2.6875019e-33
-0.0035623389 -0.032528915 0.0080537274 -0.067671403 -0.40853903 -0.91022879 -2.6875035e-33
0.0035017361 -0.031873174 0.0079818871 0.11203617 -0.64726335 -0.75398803 -2.6875028e-33
0.011860818 -0.028513147 0.0081523173 0.55180621 -0.73354995 -0.39675483 -2.687503e-33
0.017035941 -0.025056127 0.0088017313 0.86347455 -0.50419432 -0.014131103 -2.6874975e-33
-0.038888942 -0.0031313784 0.010300871 0.97788519 -0.19158038 -0.083889134 -2.6874975e-33
-0.034589794 -0.0052280547 0.0085626114 0.67639506 -0.71148872 -0.19045605 -2.6875033e-33
-0.026365967 -0.012774132 0.0079038683 -0.84432447 -0.53578317 0.0072403746 -2.6875035e-33
-0.020393714 -0.017119346 0.0061550504 -0.62664092 -0.51055712 -0.58877218 -2.6875017e-33
-0.011723789 -0.015369346 0.0015398599 0 -0.24255519 -0.9701376 -2.6874975e-33
-0.0039656875 -0.016217895 0.0014915654 0 -0.24256054 -0.97013628 -2.6874975e-33
0.003740523 -0.016078411 0.0016315454 0 -0.24256453 -0.97013527 -2.6874975e-33
0.011330766 -0.01565446 0.0020979792 0.04145642 -0.26496834 -0.9633655 -2.6874975e-33
0.019839302 -0.016287515 0.0073430683 0.80481333 -0.53082782 -0.26551336 -2.6875039e-33
0.02662163 -0.0092651276 0.0073405062 0.59319699 -0.80466449 0.025147311 -2.6875028e-33
0.033295706 -0.0044692438 0.0092611769 -0.85768908 -0.47094062 -0.20635998 -2.6875002e-33
-0.038842924 0.0089245122 0.008636808 0.99984944 0.016832825 -0.004211199 -2.6874975e-33
-0.034959145 0.0088397069 0.0086082118 0.62880719 0.66348588 -0.40544784 -2.6875056e-33
-0.027192429 0.018360313 0.0074387048 -0.70738196 0.68091166 -0.189658 -2.6875026e-33
-0.019263508 0.02129776 0.0040436871 -0.12858695 0.96683967 -0.2206503 -2.6874975e-33
-0.01192801 0.02162336 0.0035719068 -0.010183146 0.97009701 -0.24250388 -2.6874975e-33
-0.0040184073 0.0216958 0.0035581463 -0.00074373127 0.97014868 -0.24250981 -2.6874975e-33
0.0037418876 0.021663388 0.0037302435 -0.00075090362 0.97015089 -0.24250112 -2.6874975e-33
0.011515995 0.021621346 0.0034009686 0.041515436 0.96930844 -0.2423173 -2.6874975e-33
0.019774375 0.020936459 0.0051806336 0.20531702 0.94193327 -0.26571903 -2.6874975e-33
0.026909057 0.015779326 0.0074131363 0.66580921 0.69609475 -0.26860791 -2.6875033e-33
0.033467319 0.0078819115 0.0088686459 -0.92007673 0.33196002 -0.20799351 -2.6875048e-33
-0.024675975 0.024008056 0.013084902 -0.26893222 0.9115923 -0.31092599 -2.6874975e-33
-0.018790375 0.024444684 0.012123354 -0.11536305 0.94838792 -0.29538408 -2.6874975e-33
-0.011293445 0.024474828 0.010771039 -0.0083398437 0.95469075 -0.29748255 -2.6874975e-33
-0.0038049058 0.024574218 0.01101559 -0.00074220839 0.94523644 -0.32638535 -2.6874975e-33
0.0035029333 0.024485417 0.010769903 -0.00074131851 0.94664621 -0.32227376 -2.6874975e-33
0.011259816 0.024438394 0.010950794 0.035488784 0.92459691 -0.37929025 -2.6874975e-33
0.018631438 0.024414092 0.012756776 0.1676013 0.93809187 -0.30313918 -2.6874975e-33
0.024390815 0.023806132 0.013353928 0.44852665 0.86707902 -0.21678996 -2.6874975e-33
-0.0030893767 -0.046704736 0.019499546 -0.80000007 -0.49923021 0.33282003 -2.6874975e-33
0.0015943348 -0.046297301 0.019349756 0.70710677 0.58834839 -0.39223239 -2.6874975e-33
-0.017889302 -0.025492091 0.024879482 -0.81908196 -0.52837372 0.22344092 -2.6874978e-33
-0.011701397 -0.028473629 0.025310045 -0.26186869 -0.86577606 0.42644641 -2.6874995e-33
-0.0034606562 -0.036347009 0.025381649 -0.86050445 0.41680834 -0.29292142 -2.6875048e-33
0.0028720784 -0.033692621 0.025072241 0.35732874 -0.84796751 0.39149374 -2.6875026e-33
0.011612955 -0.027256027 0.025210159 0.57957071 -0.71866596 0.38420957 -2.687501e-33
0.016511459 -0.024672477 0.02340615 0.87067753 -0.48614353 0.074733436 -2.6874975e-33
-0.038886506 -0.0061322553 0.028356746 -0.97014272 0.058824379 0.23529322 -2.6874975e-33
-0.034583803 -0.0065183192 0.026426814 -0.23121139 -0.70679462 -0.6685676 -2.6875041e-33
-0.026700784 -0.01059063 0.025882561 -0.76026672 -0.61267114 0.21593639 -2.6875032e-33
-0.020599701 -0.018530972 0.025694238 -0.85287946 -0.41546127 0.31620955 -2.6875e-33
0.014681346 -0.020420691 0.025853176 0.56722122 -0.12540461 0.8139618 -2.6874975e-33
0.019500967 -0.01643426 0.025304001 0.82562345 -0.50499755 0.25164148 -2.6875035e-33
0.026880261 -0.0085886866 0.025839441 0.52092874 -0.85359895 0.0014781384 -2.6875026e-33
0.033310849 -0.0058097052 0.025789317 0.63356036 -0.73838335 0.23106553 -2.6875021e-33
-0.038921855 0.0090053752 0.024252072 0.61751252 0.58658135 0.52402353 -2.6874975e-33
-0.03460503 0.010571774 0.024882443 -0.41835943 0.85845208 -0.2967076 -2.6875056e-33
-0.027820937 0.014492324 0.028107343 -0.80374348 0.26247835 0.5339489 -2.6875028e-33
-0.019704483 0.01814279 0.032199092 -0.092312016 0.38061687 0.92011368 -2.6874975e-33
-0.011174689 0.018851068 0.032366257 -0.002906536 0.32218593 0.9466719 -2.6874975e-33
-0.0029734969 0.020358399 0.032144111 -0.0034996618 0.42241049 0.90639782 -2.6874975e-33
0.0047358386 0.020262782 0.032020982 0.00019935882 0.45832393 0.88878518 -2.6874975e-33
0.011078125 0.019457199 0.031969629 0.017997598 0.33962294 0.94038951 -2.6874975e-33
0.020696163 0.015005905 0.031215491 0.43294683 0.32229987 0.84183121 -2.6874975e-33
0.027285272 0.014438193 0.02714612 0.64308804 0.37100506 0.66992021 -2.6875044e-33
0.033381961 0.010029616 0.024487404 0.30336475 0.7171644 0.62741137 -2.6875054e-33
-0.032040536 0.023201644 0.027137756 -0.77036315 0.38798085 0.50597578 -2.6874975e-33
-0.025893049 0.025157148 0.023457393 -0.40714782 0.91306806 0.023178786 -2.6874975e-33
-0.01894341 0.026362684 0.025319895 -0.12711775 0.98364645 0.12759593 -2.6874997e-33
-0.011308735 0.026906254 0.024804462 -0.010926778 0.99622089 0.086165667 -2.6875008e-33
-0.0037087374 0.027021656 0.025120348 -0.0003825257 0.99459672 0.1038138 -2.6875006e-33
0.0039246432 0.027028883 0.024870213 0.00056003191 0.99472833 0.10254328 -2.6875002e-33
0.011657476 0.026817689 0.025141845 0.048421428 0.98870659 0.1418259 -2.687501e-33
0.019315356 0.026016537 0.024892954 0.19809981 0.97423613 0.1077985 -2.6875002e-33
0.024954028 0.024605388 0.024188844 0.63708574 0.76827747 0.06222219 -2.6874975e-33
-0.017177379 -0.024132291 0.037926346 -0.78698391 -0.56326401 0.25177389 -2.6874975e-33
-0.010697658 -0.02717093 0.039291892 -0.54494828 -0.71437889 0.4389694 -2.6874999e-33
-0.0035547097 -0.02899076 0.040782306 0.32926854 -0.7328648 0.59539187 -2.6875022e-33
0.0041172234 -0.028293388 0.040388294 0.38783497 -0.76234502 0.51808691 -2.6875022e-33
0.010769831 -0.025274646 0.038841203 0.56306928 -0.73643696 0.37498465 -2.6874975e-33
0.016009921 -0.023507375 0.035279259 0.86723536 -0.48303249 0.12075811 -2.6874975e-33
-0.038716204 -0.011801571 0.035228826 -1 0 0 -2.6874975e-33
-0.034541748 -0.0090909433 0.035076115 -0.12944354 0.0030013027 0.99158227 -2.6874975e-33
-0.026217526 -0.0075696912 0.036272485 -0.58065468 -0.18167041 0.79362208 -2.6874975e-33
-0.018741401 -0.011632407 0.040469658 -0.7624411 -0.12815456 0.63423973 -2.6875039e-33
-0.013046372 -0.013640646 0.04582531 -0.89166451 -0.20869018 0.40172493 -2.6875017e-33
-0.0038880298 -0.021888494 0.0489012 0.18780604 0.94750363 -0.25877735 -2.6874975e-33
0.0055519403 -0.020339664 0.0479226 -0.66688818 0.72836345 0.15731107 -2.6874975e-33
0.011908336 -0.011825412 0.044804141 0.85371816 -0.11978225 0.50677168 -2.6875037e-33
0.018841654 -0.010688104 0.038567018 0.65518314 -0.17752916 0.73431486 -2.6875024e-33
0.026672598 -0.0069061276 0.035712626 0.2190787 0.034790393 0.97508675 -2.6874975e-33
0.03347367 -0.0075803888 0.035222702 0.26416051 0.15675013 0.95165569 -2.6874975e-33
-0.033062708 0.0022995621 0.034301952 -2.3801726e-05 0.24252555 0.97014505 -2.6874975e-33
-0.026401803 0.0065664472 0.035739455 -0.61634153 0.19098465 0.76396853 -2.6874975e-33
-0.018433467 0.0080697825 0.039071877 -0.48617277 0.30500174 0.81890768 -2.6875004e-33
-0.012173116 0.012029894 0.042645611 -0.78442812 0.59501231 0.17502226 -2.6875037e-33
-0.0038637642 0.01863043 0.042130619 -0.16131866 0.98571742 -0.048347689 -2.6874995e-33
0.0042982395 0.017358201 0.042176396 0.43098885 0.90230668 0.0095589673 -2.6875e-33
0.011251865 0.0099155921 0.042806663 0.75995868 0.43741074 0.48076466 -2.6875037e-33
0.019318802 0.010521226 0.037090752 0.26891902 0.25281787 0.92938995 -2.6874993e-33
0.024827115 0.0072369534 0.035402216 0.61340702 0.19339651 0.76572168 -2.6874975e-33
0.033174109 0.0022006854 0.033970356 0.31624809 0.23007828 0.92035383 -2.6874975e-33
-0.023341566 0.023607919 0.034304939 -0.22144501 0.47695273 0.85057521 -2.6874975e-33
-0.0178487 0.024755904 0.034395676 -0.11319151 0.65462863 0.7474283 -2.6874975e-33
-0.011835545 0.024805404 0.034810033 -0.044790309 0.64452481 0.76327038 -2.6874975e-33
-0.0030970841 0.024007319 0.038083408 -0.00028693338 0.71390599 0.70024145 -2.6874975e-33
0.0035062102 0.024211181 0.035062656 0.00023324929 0.49746248 0.8674854 -2.6874975e-33
0.01012436 0.024791107 0.034498069 0.047025189 0.65927923 0.75042629 -2.6874975e-33
0.015706226 0.024355507 0.034791652 0.11736562 0.64575189 0.75447321 -2.6874975e-33
-0.0081035448 -0.022880116 0.056655791 -0.4555012 -0.88831168 0.058488768 -2.6874975e-33
-0.0031595388 -0.023015823 0.056520287 -0.080387831 -0.99338812 0.081961989 -2.6874975e-33
0.0020240545 -0.022627115 0.052699704 0.29558411 -0.95426792 0.044752624 -2.6874975e-33
-0.016792521 -0.0065958272 0.058728717 -0.9881708 -0.15147951 -0.023924181 -2.6874995e-33
-0.012199635 -0.014209902 0.059149869 -0.86732543 -0.49762666 0.010689714 -2.6875046e-33
-0.0037952885 -0.021191131 0.060018566 -0.16566819 -0.98183095 0.092531584 -2.6874975e-33
0.0041346182 -0.020161308 0.058951002 0.44967586 -0.89259332 0.032692261 -2.6874999e-33
0.011389893 -0.010003096 0.059090372 0.96122289 -0.27546647 -0.012990479 -2.6875056e-33
0.015702635 -0.0041469112 0.060352594 0.99552202 -0.094453409 0.0038009249 -2.6874975e-33
-0.016924668 0.0074117566 0.059549101 -0.98340005 0.16645585 -0.072227977 -2.6875015e-33
-0.01235595 0.014684586 0.058617532 -0.8211205 0.5445931 -0.17081945 -2.6875043e-33
-0.0043193656 0.021482103 0.053706486 -0.20100264 0.93172836 -0.30245677 -2.6874975e-33
0.0051431712 0.020350352 0.055889145 0.53329468 0.80945379 -0.2457263 -2.6874975e-33
0.011782338 0.010720748 0.059511613 0.9501918 0.29515955 -0.10008159 -2.6875057e-33
0.016113773 0.0023113489 0.058123633 0.99609429 0.067696847 -0.056686077 -2.6874975e-33
-0.0095540686 0.023654293 0.063704528 -0.56349945 0.80145139 -0.20036 -2.6874975e-33
-0.0038238703 0.024545295 0.060994543 -0.15856402 0.95709598 -0.24253845 -2.6874975e-33
0.0030119272 0.024336336 0.061662789 0.28888109 0.92834872 -0.23391536 -2.6874975e-33
0.0085413754 0.02338998 0.065177545 0.6088568 0.76959634 -0.1923925 -2.6874975e-33
-0.016689055 -0.0052732714 0.074359089 -0.97963822 -0.18288442 0.082839355 -2.6874975e-33
-0.012173515 -0.011169381 0.07588423 -0.85162514 -0.49150488 0.18209234 -2.6875044e-33
-0.0038737771 -0.018118365 0.075815089 -0.17224552 -0.94518673 0.27740484 -2.6874995e-33
0.004193366 -0.016705163 0.07583265 0.46141848 -0.85515261 0.23623523 -2.687501e-33
0.011264442 -0.0081661018 0.075710043 0.94585794 -0.30079406 0.12196598 -2.6875044e-33
0.015699618 -0.0026860908 0.070465997 0.994398 -0.10254488 0.025635121 -2.6874975e-33
-0.017025229 0.0080287335 0.075555481 -0.99187577 0.11862053 0.045952573 -2.6875022e-33
-0.01325488 0.013943386 0.076047152 -0.94457328 0.3280513 0.012792875 -2.6875044e-33
0.0071412805 0.021228127 0.07618507 0.69262952 0.7212925 0.0012862614 -2.6874975e-33
0.012062547 0.011166751 0.076050051 0.98530167 0.16683216 0.036711052 -2.6875061e-33
0.015804738 0.0051573962 0.075017154 0.99625129 0.057211086 0.064887069 -2.6874975e-33
-0.0095895128 0.026860233 0.077828825 -0.69622064 0.71677989 0.038773399 -2.6874975e-33
-0.0042233565 0.028936941 0.076991789 -0.16433139 0.98603684 0.026955388 -2.6875015e-33
0.0039291815 0.027413787 0.076840155 0.44153103 0.89687461 -0.025811473 -2.6875015e-33
0.0091369413 0.02389838 0.076861247 0.75738376 0.65173477 -0.040145848 -2.6874975e-33
-0.0038646758 0.045503497 0.083844334 0.36481503 -0.60573095 0.70710677 -2.6874975e-33
0.00068128109 0.045616031 0.08375407 0 0 1 -2.6874975e-33
-0.015785202 -0.0029106901 0.08869572 -0.96142316 -0.19092454 0.19802342 -2.6874975e-33
-0.011458674 -0.0061835535 0.091739893 -0.85516864 -0.41786084 0.30672291 -2.6875021e-33
-0.0039009433 -0.011788937 0.091813885 -0.22087784 -0.86223638 0.45580861 -2.687498e-33
0.004245833 -0.0095758615 0.093029946 0.54971993 -0.72123682 0.42145634 -2.687501e-33
0.010052723 -0.0047934218 0.090840317 0.91569334 -0.30893463 0.25703123 -2.6874997e-33
-0.016145278 0.0081891697 0.089047603 -0.98580176 0.069459647 0.15287335 -2.6874975e-33
-0.012489437 0.012106333 0.093215801 -0.97536522 0.16583064 0.14547493 -2.6875056e-33
-0.0070508122 0.022397757 0.096257061 -0.98306298 0.18326803 -5.9905174e-06 -2.6874975e-33
0.0068124468 0.017439246 0.095364235 0.94529504 0.31056643 0.099828988 -2.6874975e-33
0.010657656 0.010814215 0.092357531 0.97934061 0.12911373 0.15563342 -2.6875059e-33
-0.0092626717 0.031817656 0.092195131 -0.99974191 0.022718148 -0.00015876877 -2.6875026e-33
-0.0046695555 0.037540343 0.091365635 -0.20483838 -0.82878339 0.52072954 -2.6875043e-33
0.0043309708 0.035258502 0.09221971 0.86796552 -0.46731105 0.16809596 -2.6875059e-33
0.0084962873 0.026531065 0.092632174 0.97115862 0.23755884 0.020414803 -2.6874975e-33
-0.0022350079 0.049125977 0.093144536 0.070129789 -0.91061938 -0.40725186 -2.6874975e-33
0.0011217985 0.045779966 0.088787891 -0.32296741 -0.94156414 -0.095650576 -2.6874975e-33
-0.016969834 -0.027997885 0.11505858 -0.88166928 -0.093183771 -0.46257544 -2.6874975e-33
-0.011581691 -0.030649843 0.11171696 -0.64170736 -0.29380304 -0.70844293 -2.6875022e-33
-0.0035485022 -0.032257322 0.1097578 -0.10205287 -0.52976 -0.84198552 -2.6875013e-33
0.0037653984 -0.031908471 0.11062469 0.30929762 -0.48215735 -0.81967014 -2.6875013e-33
0.010764867 -0.029174598 0.11345964 0.76454902 -0.17783947 -0.61954659 -2.6875e-33
0.015977591 -0.023008704 0.11543146 0.92107141 -0.076443158 -0.3818166 -2.6874975e-33
-0.017708085 -0.010378553 0.11426686 -0.85596859 -0.070690438 -0.51217246 -2.6874997e-33
-0.011758233 -0.011083785 0.10861496 -0.73904842 -0.10627116 -0.66521716 -2.6875041e-33
-0.0041981498 -0.01269973 0.10438583 -0.25674725 -0.36137989 -0.89637339 -2.6874995e-33
0.0047306349 -0.011272524 0.10626043 0.57330704 -0.25339711 -0.779172 -2.6875024e-33
0.011382318 -0.011371738 0.11230735 0.7982769 -0.073363647 -0.5978058 -2.6875035e-33
0.016455218 -0.0083692623 0.11611166 0.90998143 -0.076527566 -0.40752584 -2.6874975e-33
-0.023064077 0.021348357 0.11632962 -0.92120326 -0.076449014 -0.38149717 -2.6874975e-33
-0.018515436 0.012099335 0.11346249 -0.80697614 -0.065484785 -0.58694237 -2.6875035e-33
-0.011979146 0.010922949 0.10618099 -0.93149245 -0.019220144 -0.3632527 -2.6875037e-33
-0.0073629767 0.010717511 0.10326089 -0.98337436 -0.096156053 0.15404184 -2.6874975e-33
0.0068236236 0.011106987 0.10504903 0.97745788 -0.00073252385 -0.21112914 -2.6874975e-33
0.01113 0.0110326 0.10957797 0.83447522 -0.044948876 -0.54920918 -2.6875048e-33
0.01710978 0.012763178 0.11536015 0.8754437 -0.071854703 -0.47794896 -2.6874975e-33
-0.024364144 0.03933955 0.11421321 -0.98772484 -0.033588741 -0.15254955 -2.6874975e-33
-0.019381419 0.033410519 0.11238842 -0.68802965 -0.11659484 -0.71625477 -2.6875035e-33
-0.011606444 0.033923477 0.10598762 -0.61976069 -0.030040715 -0.78421569 -2.687503e-33
-0.0053993897 0.038557667 0.10326695 -0.41944346 -0.90722716 0.031718258 -2.6874975e-33
0.0051160627 0.035393421 0.10446885 0.70507598 -0.1092614 -0.70066392 -2.6875008e-33
0.011799514 0.033321846 0.10985489 0.64413583 -0.023443198 -0.76455182 -2.6875033e-33
0.01884092 0.035830013 0.11455212 0.76496726 -0.15703233 -0.62463272 -2.6875013e-33
0.025004305 0.042218175 0.11487326 0.99539417 0.04704478 -0.083530322 -2.6874975e-33
-0.024238534 0.054514937 0.11506578 -0.84735048 0.30540138 -0.43442726 -2.6874975e-33
-0.019241499 0.056201193 0.11170731 -0.70647681 0.070856296 -0.7041803 -2.6875041e-33
-0.011650009 0.057163175 0.10665068 -0.46168798 0.040559281 -0.8861146 -2.6875033e-33
-0.0036023327 0.056952607 0.10474169 -0.056267839 0.052537911 -0.99703246 -2.6875013e-33
0.0041466518 0.056688424 0.10521251 0.24871887 0.047133144 -0.96742821 -2.6875022e-33
0.01197956 0.057519767 0.10936506 0.62580365 0.033767346 -0.77924937 -2.6875035e-33
0.018774612 0.055995759 0.11432926 0.79414785 0.025221689 -0.60720104 -2.687503e-33
0.025365364 0.046330594 0.11404965 0.76870912 0.61813205 -0.16431403 -2.6874975e-33
-0.023255587 0.078388281 0.11678625 -0.90464944 0.20300025 -0.37470028 -2.6874975e-33
-0.018679094 0.079196513 0.11488149 -0.6861546 0.062508047 -0.72476524 -2.6875026e-33
-0.011725751 0.078816347 0.10987458 -0.49748069 0.031669408 -0.86689681 -2.6875035e-33
-0.0038050846 0.079187028 0.10702992 -0.09683875 0.080795698 -0.9920153 -2.6875024e-33
0.0037973211 0.078676693 0.1076818 0.25663406 0.064398952 -0.96436083 -2.6875026e-33
0.011572522 0.07923656 0.1123561 0.59876204 0.058117889 -0.79881561 -2.6875041e-33
0.017449558 0.080351368 0.11567357 0.812554 0.03930318 -0.58155924 -2.6874975e-33
-0.017674802 0.09730465 0.11578833 -0.98961383 -0.067066543 -0.12714775 -2.6874975e-33
-0.011436999 0.099514768 0.11255684 -0.12952325 -0.3768726 -0.91716456 -2.6875028e-33
-0.0038621053 0.10146689 0.11116865 -0.27583426 -0.95018196 0.14515403 -2.6875028e-33
0.0040231245 0.10063493 0.11116153 0.31239596 -0.43012714 -0.8469944 -2.687503e-33
0.010755537 0.098323911 0.1141862 -0.6870023 -0.68247783 0.24950323 -2.6875015e-33
0.016920848 0.094735183 0.1166421 0.80616826 0.17670175 -0.56468511 -2.6874975e-33
-0.015730321 0.12130874 0.11694653 -0.79030728 -0.086891614 -0.60651809 -2.6874975e-33
-0.010693886 0.12290625 0.11541935 -0.53643435 0.00090665492 -0.84394157 -2.6875011e-33
-0.0038940294 0.12454726 0.11371568 -0.014619653 -0.024701273 -0.99958795 -2.6875028e-33
0.0037658345 0.12374522 0.11455688 0.33765975 0.076072112 -0.93818921 -2.6875039e-33
0.0096837804 0.12262321 0.11598568 0.65632647 0.050176352 -0.75280666 -2.6874975e-33
-0.010302885 0.13813624 0.11633212 -0.47357047 0.46688411 -0.74682677 -2.6874975e-33
-0.0038176219 0.14009239 0.11578336 -0.15137139 0.38130909 -0.91197044 -2.6874975e-33
0.0033950803 0.13982843 0.11610291 0.36073065 0.37286732 -0.85489374 -2.6874975e-33
0.0098043708 0.13692196 0.11744332 0.75978458 0.41923687 -0.49695864 -2.6874975e-33
-0.023241505 -0.025836527 0.12675194 -1 0 0 -2.6874975e-33
-0.018722476 -0.029387727 0.12660606 -0.96336091 -0.1686497 -0.20855014 -2.6875046e-33
-0.011705431 -0.035958204 0.12621583 -0.29056549 -0.95578462 -0.045249425 -2.6875015e-33
-0.0039899545 -0.03610355 0.12635975 0.53399301 -0.84548891 0 -2.6874999e-33
0.0037155682 -0.036257286 0.12648351 -0.74049449 -0.66165102 0.11783863 -2.6875004e-33
0.01241955 -0.032462358 0.1260547 0.87811357 -0.47116217 -0.083203211 -2.6875039e-33
0.017191125 -0.027953794 0.12709093 0.97849619 0.059365802 -0.19753702 -2.6874984e-33
-0.019711265 -0.011357277 0.12633502 -0.97254521 -0.18662088 -0.13902682 -2.6875035e-33
-0.014823884 -0.017994583 0.12635507 -0.9953568 -0.088448457 -0.037969716 -2.6874975e-33
0.014302192 -0.011449952 0.12618692 0.95457345 0.045526136 -0.29447722 -2.6875013e-33
0.017269781 -0.010917513 0.12651795 0.97055537 -0.12743731 -0.20440654 -2.687505e-33
-0.023727575 0.01626165 0.12630904 -0.92229068 -0.08131808 -0.3778457 -2.6874975e-33
-0.020669024 0.010148071 0.12626886 0.89714611 0.068161607 -0.43644351 -2.6875056e-33
0.01481556 0.004559462 0.12526388 -0.99552661 0.093356311 0.014543514 -2.6874975e-33
0.018173179 0.011591127 0.1262874 -0.93615901 0.089673646 -0.33994839 -2.6875059e-33
-0.024555869 0.035203591 0.12643379 -0.64228171 0.22467628 -0.73279929 -2.6875041e-33
-0.021584043 0.03163467 0.12584138 0.89340276 0.033089362 -0.44803652 -2.6875017e-33
0.019764196 0.033896148 0.12634832 -0.89233017 0.1414358 -0.42865217 -2.6875059e-33
0.023610339 0.040916294 0.12633453 0.96619409 0.076823898 0.24610387 -2.6874975e-33
-0.025675882 0.056039874 0.12709418 -0.99768585 0.037787169 -0.056525704 -2.6875059e-33
-0.021922385 0.056894578 0.12356918 -0.97886962 -0.021258703 -0.20337744 -2.6874975e-33
0.020994589 0.056641802 0.12611538 0.9950071 0.027878003 -0.095831275 -2.6875054e-33
0.024216393 0.055814564 0.12736103 0.99871963 0.032188371 -0.039025139 -2.6874977e-33
-0.024284707 0.077606447 0.12718794 -0.9933148 0.090101615 -0.072161771 -2.6875022e-33
-0.02130363 0.079716049 0.12560521 -0.98679554 0.043230202 -0.1560951 -2.6875043e-33
0.014988089 0.079462312 0.11848112 0.82360291 0.035460591 -0.56605726 -2.6874975e-33
0.01908939 0.079024702 0.1262086 0.99144506 0.056475718 -0.11767336 -2.6875028e-33
0.023307115 0.073558494 0.12773409 0.97579342 0.2186022 -0.0063474816 -2.6874975e-33
-0.023393065 0.093534634 0.12698002 -0.9811812 0.18179168 -0.065078758 -2.6874975e-33
-0.01931832 0.10011205 0.12649927 -0.81001216 -0.51789552 -0.27507174 -2.6875057e-33
-0.012377664 0.10817119 0.1260021 -0.18415457 -0.98247445 0.02882727 -2.6874975e-33
-0.005006237 0.10883708 0.12215657 -0.19116706 -0.96413589 -0.18411177 -2.6874975e-33
0.0047890525 0.10859118 0.12483805 0.23680507 -0.97153395 0.0067106439 -2.6874975e-33
0.012646019 0.10559995 0.12554276 0.12443073 -0.99114317 -0.046392601 -2.687503e-33
0.017545231 0.097348429 0.12676373 0.96650368 -0.050839577 -0.25156707 -2.6875044e-33
-0.01711713 0.12360395 0.12712102 -0.99919432 0.017644437 -0.036045477 -2.6875044e-33
-0.013520743 0.12465397 0.12509595 -0.96326345 -0.13176198 -0.23401339 -2.6875043e-33
0.007016913 0.12712885 0.11873524 -0.88019377 -0.17038125 0.44297767 -2.6874975e-33
0.011988906 0.12375401 0.12601359 0.97506022 0.028928863 -0.22004679 -2.687503e-33
0.015949249 0.12165252 0.12857033 0.99547225 -0.029663917 -0.090305388 -2.6874975e-33
-0.01607619 0.13767742 0.12865356 -0.93185019 0.35823685 0.057633862 -2.6874975e-33
-0.011066693 0.14405291 0.12663884 -0.81996304 0.55553299 -0.13799879 -2.6875056e-33
-0.0044009779 0.15139249 0.12580077 -0.54118341 0.7648778 -0.3494032 -2.687505e-33
0.0040406897 0.14970115 0.12610371 0.69002682 0.68109649 -0.24488895 -2.6875059e-33
0.010195479 0.14069097 0.12732622 0.89247906 0.44421262 -0.078461714 -2.6875035e-33
-0.0024861426 0.15924396 0.12840357 -0.26369873 0.9620353 -0.070364229 -2.6874975e-33
0.0015737312 0.15913083 0.12776996 0.43963027 0.89254671 -0.10042673 -2.6874975e-33
-0.0232279 -0.025747418 0.13539812 -1 0 0 -2.6874975e-33
-0.017963132 -0.027798109 0.13755506 -0.79479796 -0.088571906 0.60037595 -2.6874975e-33
-0.011489059 -0.031209411 0.1411368 -0.59807903 -0.37277177 0.70946652 -2.6875028e-33
-0.0037599488 -0.032147672 0.1428666 -0.13373408 -0.48931265 0.8617937 -2.6875028e-33
0.0038312157 -0.03159941 0.14256701 0.096677996 -0.48253945 0.87052232 -2.687503e-33
0.011044473 -0.029880062 0.13925286 0.76306534 -0.30385011 0.57044399 -2.6875015e-33
0.016950632 -0.027505266 0.13665862 0.42230421 -0.17113955 0.89015192 -2.6874975e-33
-0.023378491 -0.020744503 0.13587889 -1 0 0 -2.6874975e-33
-0.018018553 -0.010733811 0.13863683 -0.85719883 -0.050760373 0.51247782 -2.687503e-33
-0.011511029 -0.01157634 0.14439663 -0.53694117 -0.083916612 0.83943564 -2.6875041e-33
-0.0034792337 -0.011172069 0.14734162 -0.053983502 -0.083382912 0.99505424 -2.6875024e-33
0.0036217151 -0.011451744 0.14660609 0.24046849 -0.08283262 0.96711618 -2.687503e-33
0.011366806 -0.011356982 0.14171539 0.7428385 -0.085995108 0.66392452 -2.6875046e-33
0.016958483 -0.01153914 0.13725361 0.83488286 0.014566014 0.55023503 -2.6874975e-33
-0.023258299 0.019355616 0.13721375 -0.91975158 -0.094767958 0.38088855 -2.6874975e-33
-0.018814687 0.012127116 0.14020836 -0.81526357 -0.08470799 0.57286119 -2.6875046e-33
-0.011841986 0.011206277 0.14625682 -0.46261343 -0.077378914 0.88317686 -2.6875033e-33
-0.0041011861 0.011385762 0.1481045 -0.1085107 -0.0056852493 0.99407899 -2.6875028e-33
0.00359747 0.010992865 0.14799446 0.21360451 -0.023759609 0.97663128 -2.6875026e-33
0.011655597 0.011127875 0.1438593 0.65024191 -0.099902004 0.7531302 -2.687505e-33
0.017350597 0.013043756 0.13813807 0.73049992 -0.077525102 0.67849815 -2.687501e-33
-0.024019865 0.035713889 0.13756171 -0.89351469 -0.088349752 0.44025642 -2.6874975e-33
-0.019419648 0.034116253 0.14195241 -0.79498237 -0.08839485 0.60015774 -2.6875048e-33
-0.011978567 0.033222027 0.14820528 -0.42826501 -0.097209081 0.89840949 -2.6875033e-33
-0.0039920574 0.032344714 0.14916353 -0.073573411 -0.16012269 0.98435134 -2.6874999e-33
0.0037528991 0.032798592 0.14919862 0.15649806 -0.17431115 0.97217482 -2.6875002e-33
0.011641868 0.033561353 0.14637217 0.58618069 -0.071923457 0.8069815 -2.6875044e-33
0.018272946 0.034457829 0.13957784 0.84530884 -0.10926553 0.52298576 -2.6875039e-33
0.023177445 0.042812526 0.13602075 0.9196893 -0.094794452 0.38103223 -2.6874975e-33
-0.024814531 0.056279045 0.13811879 -0.91813558 0.022307537 0.39563796 -2.687498e-33
-0.019137904 0.056142699 0.14345041 -0.73913932 0.0099944407 0.67347831 -2.687505e-33
-0.012349689 0.057063464 0.14878367 -0.48962191 0.036373172 0.87117589 -2.6875015e-33
-0.0050245295 0.056167576 0.15066439 -0.11445951 0.035526045 0.99279249 -2.6874975e-33
0.0038854734 0.05631068 0.15028682 0.25933111 0.019342273 0.96559483 -2.6874973e-33
0.011525426 0.056551579 0.14717184 0.5792973 0.022191593 0.81481415 -2.6875043e-33
0.018897092 0.055687834 0.14048159 0.81324518 0.049425744 0.57981849 -2.6875048e-33
0.023777824 0.056236457 0.13686061 0.92834097 0.065000325 0.36600277 -2.6874975e-33
-0.023779595 0.077733614 0.13639304 -0.91954374 0.096723221 0.38089865 -2.6874975e-33
-0.019349255 0.078899242 0.14001481 -0.83119506 0.043329384 0.55428988 -2.6875046e-33
-0.012176292 0.078609817 0.14653535 -0.54958147 0.033752948 0.8347581 -2.6875037e-33
-0.0044354275 0.078847043 0.1492283 -0.17188843 0.050316542 0.98383051 -2.6875026e-33
0.0037696015 0.079202041 0.14880835 0.22063908 -0.019574301 0.97515911 -2.6875032e-33
0.011349377 0.078801535 0.14464819 0.54928118 0.084986657 0.83130467 -2.6875046e-33
0.017873375 0.078471735 0.13834207 0.86382276 0.071466394 0.49870118 -2.6875032e-33
-0.023055092 0.095219553 0.13644397 -0.90944928 0.17585996 0.37679604 -2.6874975e-33
-0.018103762 0.098051526 0.13848098 -0.96523303 0.013725495 0.26103055 -2.6875015e-33
-0.011649556 0.1010709 0.14308703 -0.22775179 -0.48349506 0.84519923 -2.6875039e-33
-0.0039074365 0.10164903 0.14480151 -0.35483447 -0.93374926 -0.046955846 -2.6875033e-33
0.0038975643 0.1010858 0.14494202 -0.089121155 -0.60587609 -0.79055142 -2.6875039e-33
0.011433514 0.099928483 0.14072824 -0.45643443 -0.54372048 -0.70429802 -2.6875041e-33
0.017170275 0.096183978 0.13765015 0.87554622 0.17713317 0.44949147 -2.6874975e-33
-0.016559847 0.12089672 0.13638142 -0.84156066 0.01295124 0.54000735 -2.6874975e-33
-0.01126205 0.12396627 0.13966528 -0.48661622 0.071755424 0.870664 -2.6875043e-33
-0.0038222515 0.12402725 0.14293194 0.0023550701 0.046390638 0.99892056 -2.687503e-33
0.0038357622 0.12368933 0.1418734 0.25070098 0.085475676 0.96428365 -2.6875039e-33
0.010143509 0.12404414 0.13802773 0.69078505 0.090708233 0.71734792 -2.687503e-33
-0.016568676 0.1363644 0.13633651 -0.86733305 0.34552175 0.35825717 -2.6874975e-33
-0.010328405 0.14000092 0.13756625 -0.63798183 0.38376039 0.66761303 -2.6874975e-33
-0.0036528243 0.14406218 0.13855557 -0.16375285 0.53369409 0.82967204 -2.6875022e-33
0.0035938548 0.14252129 0.13831685 0.39713243 0.48252648 0.78067535 -2.6875017e-33
0.009450607 0.13842396 0.1369478 0.7170403 0.36320433 0.59492511 -2.6874975e-33
-0.0088454243 0.040180679 0.15252303 -0.32612571 -0.082682975 0.94170356 -2.6874975e-33
-0.0038259621 0.038406156 0.15255451 -0.07859005 -0.0831521 0.99343312 -2.6874975e-33
0.0026483412 0.039111245 0.1526975 0.17060648 -0.082711227 0.98186165 -2.6874975e-33
0.0085445717 0.040113419 0.15205231 0.38143462 -0.080517754 0.92088252 -2.6874975e-33
-0.01025476 0.055987544 0.1527389 -0.31927383 0.015093665 0.94754231 -2.6874975e-33
-0.0039009668 0.056506801 0.15299681 -0.066531152 0.047090106 0.99667257 -2.6874991e-33
0.003535846 0.056228064 0.15300205 0.20957279 0.037315179 0.9770807 -2.6874978e-33
0.0086600007 0.054439705 0.152878 0.38267651 0.0017416641 0.92388076 -2.6874975e-33
-0.0084737837 0.081222832 0.15217873 -0.38275209 0 0.92385113 -2.6874975e-33
-0.0025293641 0.077482492 0.1521571 -0.098872468 0.08080975 0.99181348 -2.6874975e-33
0.0024703741 0.072518624 0.15228333 0.12495567 0.2882556 0.9493655 -2.6874975e-33
