# .PCD v0.7 - Point Cloud Data file format
VERSION 0.7
FIELDS x y z normal_x normal_y normal_z curvature
SIZE 4 4 4 4 4 4 4
TYPE F F F F F F F
COUNT 1 1 1 1 1 1 1
WIDTH 532
HEIGHT 1
VIEWPOINT 0 0 0 1 0 0 0
POINTS 532
DATA ascii
-0.029030612 -0.021479888 -0.00076366746 -0.16501465 -0.11892372 -0.97909522 -1.5812601e+20
-0.02397747 -0.021870427 -0.00057056174 0.00032466496 -0.1417453 -0.98990309 -1.5812601e+20
-0.016387325 -0.021074861 -0.00068729743 0.00020892581 -0.091313019 -0.99582225 -1.5812601e+20
-0.010163673 -0.02236766 -0.00063215836 0.00033131731 -0.14488526 -0.98944837 -1.5812601e+20
-0.003270302 -0.021131277 -0.00070983544 0.00020892649 -0.091313004 -0.99582225 -1.5812601e+20
0.0033985036 -0.02234338 -0.00055561744 0.00034947938 -0.15314355 -0.98820388 -1.5812601e+20
0.0092168041 -0.022124229 -0.0006055329 0.00032478466 -0.1417405 -0.98990381 -1.5812601e+20
0.017671155 -0.02175254 -0.00073710509 0.00029315645 -0.1283811 -0.99172485 -1.5812601e+20
0.023709044 -0.02161558 -0.00076395768 0.00027444336 -0.12022965 -0.99274606 -1.5812601e+20
0.029252121 -0.021237442 -0.00075236958 0.00014361406 -0.062658399 -0.99803501 -1.5812599e+20
-0.029337021 -0.0094039636 -0.00064061984 -0.40606987 -0.0051828134 -0.9138273 -1.5812596e+20
-0.023724087 -0.00933435 -0.00062360166 1.0698889e-05 -0.0046567135 -0.99998915 -1.5812594e+20
-0.016530642 -0.0095002046 -0.00061308924 1.0698889e-05 -0.0046567135 -0.99998921 -1.5812596e+20
-0.0098726349 -0.0092072869 -0.00050964725 1.0698889e-05 -0.0046567135 -0.99998915 -1.5812594e+20
-0.0032800629 -0.0086004958 -0.00069839344 1.0698889e-05 -0.0046567135 -0.99998921 -1.5812596e+20
0.0032435399 -0.0092947399 -0.00062460016 1.0698889e-05 -0.0046567135 -0.99998915 -1.5812594e+20
0.010113837 -0.0093201352 -0.00065988372 1.0698894e-05 -0.0046567144 -0.99998921 -1.5812594e+20
0.017033856 -0.0092415353 -0.0007434141 1.0698927e-05 -0.0046567135 -0.99998915 -1.5812594e+20
0.023153925 -0.0081094187 -0.00065012614 1.0698993e-05 -0.0046567144 -0.99998915 -1.5812594e+20
0.029498003 -0.0097542545 -0.00044201428 0.17890741 -0.0041730511 -0.9838571 -1.5812596e+20
-0.029683368 0.0096585574 -0.00082554721 -0.48555329 -0.0051797489 -0.8741917 -1.5812596e+20
-0.023857348 0.0096585965 -0.00057274546 1.0698885e-05 -0.0046567149 -0.99998909 -1.5812592e+20
-0.016581932 0.0090400064 -0.00056887267 1.069889e-05 -0.0046567144 -0.99998915 -1.5812594e+20
-0.010175034 0.0099777598 -0.00054387207 1.0698889e-05 -0.0046567149 -0.99998921 -1.5812594e+20
-0.0035622681 0.0096802497 -0.000626138 1.0698902e-05 -0.0046567144 -0.99998915 -1.5812594e+20
0.0031143811 0.010223968 -0.00045473501 1.0698956e-05 -0.0046567135 -0.99998915 -1.5812594e+20
0.0097288471 0.0096560903 -0.00062626298 1.0699006e-05 -0.0046567149 -0.99998915 -1.5812594e+20
0.017669674 0.0094606457 -0.0007733659 1.0699031e-05 -0.0046567149 -0.99998909 -1.5812594e+20
0.023797011 0.0088937683 -0.0004993332 1.069903e-05 -0.0046567135 -0.99998915 -1.5812594e+20
0.029844517 0.010032934 -0.00046077967 0.086642906 -0.0044413661 -0.99622953 -1.5812596e+20
-0.029715629 0.029733358 -0.00087599561 -0.46566218 -0.0051844125 -0.88494742 -1.5812596e+20
-0.024509579 0.028453067 -0.00063654344 1.0698888e-05 -0.0046567149 -0.99998909 -1.5812594e+20
-0.017061859 0.028556695 -0.00068583904 1.0698939e-05 -0.0046567149 -0.99998915 -1.5812594e+20
-0.010371389 0.028055698 -0.00059708121 1.0698982e-05 -0.0046567144 -0.99998915 -1.5812594e+20
-0.0038847665 0.028273715 -0.00072650379 1.0699032e-05 -0.0046567144 -0.99998915 -1.5812594e+20
0.0031602441 0.028513204 -0.00059058086 1.0699031e-05 -0.0046567144 -0.99998915 -1.5812594e+20
0.0097197667 0.028028613 -0.00065447716 1.069903e-05 -0.0046567139 -0.99998909 -1.5812594e+20
0.017317396 0.028467506 -0.00080345385 1.0699031e-05 -0.0046567149 -0.99998909 -1.5812594e+20
0.023631381 0.028274223 -0.00058981776 1.069903e-05 -0.0046567135 -0.99998915 -1.5812594e+20
0.029152665 0.028420083 -0.00055917061 0.094822906 -0.0044192155 -0.99548435 -1.5812597e+20
-0.02935967 0.045088042 -0.00092102645 -0.4284493 0.068042956 -0.9010002 -1.5812596e+20
-0.023887031 0.044823714 -0.00070950348 -0.00016491787 0.071907923 -0.99741131 -1.5812596e+20
-0.01634345 0.045136306 -0.00065486057 -0.00019696112 0.08584483 -0.99630851 -1.5812594e+20
-0.009433005 0.044528104 -0.00065147656 -0.00012967509 0.056660641 -0.99839348 -1.5812596e+20
-0.003328148 0.044804249 -0.00069078128 -0.00015805259 0.068916768 -0.99762237 -1.5812596e+20
0.003137392 0.045300759 -0.00061617122 -0.0001953254 0.085168876 -0.9963665 -1.5812596e+20
0.0096654957 0.04517027 -0.00084058987 -0.0001511462 0.065947026 -0.99782306 -1.5812596e+20
0.017368177 0.045171421 -0.00071922067 -0.0002219684 0.096736327 -0.99531001 -1.5812596e+20
0.023989545 0.04463198 -0.00077186868 -0.0001562042 0.068267085 -0.99766707 -1.5812596e+20
0.029490266 0.044389639 -0.0006262958 -7.9014513e-05 0.034685291 -0.99939829 -1.5812599e+20
-0.029643625 -0.026056064 0.011325143 -0.98155892 -0.13922441 -0.13099073 -1.581259e+20
-0.023930499 -0.029723017 0.0094889868 0.0018923293 -0.82842356 -0.56009889 -1.581259e+20
-0.017013848 -0.029484484 0.0088916775 0.0018428706 -0.80689865 -0.5906871 -1.581259e+20
-0.010085822 -0.029480638 0.0090056686 0.0018444055 -0.80734694 -0.59007412 -1.581259e+20
-0.0036344375 -0.02985153 0.0094850268 0.0019040857 -0.83360451 -0.55235851 -1.581259e+20
0.0032015126 -0.029553181 0.0092627918 0.0018718463 -0.81929356 -0.57337123 -1.581259e+20
0.010315237 -0.029288666 0.0089545203 0.0018314708 -0.80145484 -0.59805256 -1.581259e+20
0.017047049 -0.029486863 0.0089053996 0.0018460402 -0.80789709 -0.58932066 -1.581259e+20
0.023946388 -0.029245948 0.0092670135 0.020695904 -0.81161398 -0.58382744 -1.581259e+20
0.030403886 -0.026215514 0.011429744 0.98240143 -0.13186844 -0.13228071 -1.581259e+20
-0.029883843 -0.0092749381 0.010646864 -0.99586833 -0.0027034862 -0.090768032 -1.581259e+20
-0.023995442 -0.0093379188 0.0010469654 1.0698867e-05 -0.0046567055 -0.99998921 -1.581259e+20
-0.017014785 -0.0095609827 0.00099685485 1.0698873e-05 -0.0046567088 -0.99998915 -1.5812592e+20
-0.010164663 -0.0094632702 0.0010815006 1.0698867e-05 -0.0046567065 -0.99998921 -1.581259e+20
-0.0035400903 -0.00912535 0.0010258853 1.0698877e-05 -0.0046567111 -0.99998909 -1.5812592e+20
0.0028723348 -0.0094832499 0.0011213768 1.0698866e-05 -0.0046567055 -0.99998915 -1.581259e+20
0.010316705 -0.0092386845 0.0010912422 1.0698867e-05 -0.0046567065 -0.99998915 -1.581259e+20
0.017133446 -0.0096325595 0.0010808959 1.069892e-05 -0.0046567088 -0.99998921 -1.5812592e+20
0.024238037 -0.0091745201 0.001791784 0.047017418 -0.0045440784 -0.99888372 -1.581259e+20
0.030613292 -0.0094613163 0.010229558 0.99591482 0.0018608627 -0.090278894 -1.581259e+20
-0.029870834 0.0091600204 0.010647426 -0.99476647 -0.0027545053 -0.10213824 -1.581259e+20
-0.023700723 0.0097670732 0.0011803895 1.0698875e-05 -0.0046567097 -0.99998915 -1.5812592e+20
-0.016979743 0.0096232044 0.0011472983 1.0698881e-05 -0.004656713 -0.99998921 -1.5812592e+20
-0.010099043 0.0093653211 0.0012114295 1.0698875e-05 -0.0046567097 -0.99998915 -1.5812592e+20
-0.0035142496 0.0095465919 0.001162292 1.0698897e-05 -0.0046567139 -0.99998915 -1.5812592e+20
0.0029238048 0.0097513786 0.0012265935 1.0698945e-05 -0.0046567083 -0.99998915 -1.5812592e+20
0.010485217 0.0095231133 0.0012351403 1.0699006e-05 -0.0046567079 -0.99998921 -1.5812592e+20
0.017227175 0.0099363597 0.0010569151 1.0699031e-05 -0.0046567111 -0.99998909 -1.5812592e+20
0.024196872 0.00928842 0.0019142312 0.062388334 -0.0045039901 -0.99804175 -1.5812592e+20
0.03054348 0.0092285667 0.010582049 0.99716133 0.0019359851 -0.075271077 -1.581259e+20
-0.029850019 0.028059978 0.010660686 -0.99490744 -0.0027475869 -0.10075592 -1.581259e+20
-0.023898801 0.028091228 0.0010622601 1.0698875e-05 -0.0046567107 -0.99998915 -1.5812592e+20
-0.01710402 0.028134111 0.00099289499 1.0698914e-05 -0.0046567102 -0.99998915 -1.5812592e+20
-0.0098831216 0.027924005 0.0011083658 1.0698983e-05 -0.0046567079 -0.99998909 -1.5812592e+20
-0.0034774041 0.02823681 0.0010609445 1.0699032e-05 -0.0046567144 -0.99998921 -1.5812592e+20
0.0028462496 0.028057056 0.0011307547 1.0699026e-05 -0.0046567079 -0.99998915 -1.5812592e+20
0.0099628344 0.027906846 0.0010015115 1.069903e-05 -0.0046567102 -0.99998915 -1.5812592e+20
0.016692515 0.027949831 0.0010955654 1.0699027e-05 -0.0046567083 -0.99998915 -1.5812592e+20
0.024120456 0.027950961 0.0018532216 0.072986111 -0.0044775009 -0.99732292 -1.581259e+20
0.030500989 0.028140562 0.010406245 0.99613923 0.0018702988 -0.08776699 -1.581259e+20
-0.029842427 0.047099546 0.010647151 -0.99088514 0.055456445 -0.12276471 -1.581259e+20
-0.023796611 0.048163168 0.00181521 -0.00077221921 0.33683693 -0.94156265 -1.581259e+20
-0.016950011 0.048240017 0.0017803289 -0.00078525668 0.34264916 -0.93946308 -1.581259e+20
-0.0099321464 0.048252326 0.0018733684 -0.00077845744 0.33975825 -0.94051248 -1.581259e+20
-0.0034126036 0.048698775 0.0020219181 -0.00087393448 0.38123706 -0.92447692 -1.581259e+20
0.0030652799 0.047814611 0.0018763547 -0.00072269945 0.31518066 -0.94903141 -1.581259e+20
0.010109248 0.048221204 0.0018096333 -0.00077642198 0.33856332 -0.9409433 -1.581259e+20
0.016983105 0.048010603 0.0018144824 -0.00074178079 0.32360795 -0.94619095 -1.581259e+20
0.024203468 0.048021287 0.0019643405 0.019767949 0.3226482 -0.94631255 -1.581259e+20
0.030319249 0.047105137 0.010187113 0.99183172 0.056792185 -0.11421179 -1.581259e+20
-0.033965915 0.058898598 0.011025429 -0.99999738 -0.0022888593 2.7891252e-05 -1.5812599e+20
-0.029547794 0.059802342 0.014081412 -0.65998822 0.70088953 -0.27049848 -1.581259e+20
-0.023712344 0.060998302 0.013488094 -0.0021695467 0.94873679 -0.3160598 -1.581259e+20
-0.01670873 0.060804632 0.013267942 -0.0021624288 0.94580078 -0.32474026 -1.581259e+20
-0.0099065555 0.060846753 0.013027389 -0.0021454291 0.93890172 -0.34417865 -1.581259e+20
-0.0033362873 0.060951579 0.013221143 -0.0021503924 0.94161844 -0.33667517 -1.581259e+20
0.0030630277 0.060765132 0.013058578 -0.0021493258 0.94132262 -0.33750117 -1.581259e+20
0.010057762 0.060946647 0.013167039 -0.0021601634 0.94601667 -0.32411066 -1.581259e+20
0.017022617 0.060872283 0.013142717 -0.0021442741 0.93808722 -0.3463926 -1.581259e+20
0.023739886 0.061142858 0.013566668 -0.0021713863 0.94903582 -0.31516063 -1.581259e+20
0.029860329 0.059930466 0.014159998 0.611449 0.75254595 -0.24455 -1.581259e+20
-0.029815452 -0.027758403 0.031751707 -0.99346268 -0.090564482 0.069497235 -1.581259e+20
-0.023978263 -0.032353468 0.034392569 -0.10932673 -0.94206053 0.31712708 -1.581259e+20
-0.017225796 -0.034111436 0.0328683 0.0022591946 -0.98936641 0.14542729 -1.581259e+20
-0.010341485 -0.034148946 0.033150643 0.0022584817 -0.98932528 0.14570664 -1.581259e+20
-0.0035069457 -0.034112893 0.032660451 0.0022577965 -0.98881346 0.14914034 -1.581259e+20
0.0032337967 -0.034184508 0.032886524 0.0022616272 -0.99074167 0.1357414 -1.581259e+20
0.010409002 -0.034174833 0.032899521 0.0022533962 -0.98733026 0.15866263 -1.581259e+20
0.017120734 -0.033960562 0.033295456 0.0022685977 -0.99336207 0.11500711 -1.581259e+20
0.023953145 -0.031940009 0.034214899 0.14181542 -0.95127434 0.27379823 -1.581259e+20
0.03040795 -0.027712803 0.03230153 0.99040568 -0.096431948 0.098982126 -1.581259e+20
-0.029847559 -0.0095113479 0.030908542 -0.9994576 -0.0021218271 0.032864511 -1.581259e+20
-0.024522172 -0.0092891799 0.040467352 -0.62470877 0.0025043904 0.78085387 -1.5812592e+20
0.020138532 -0.012450755 0.039818347 -1.1519941e-05 0.0050399355 0.9999873 -1.5812599e+20
0.024645038 -0.010316836 0.040452328 0.6936245 0.0052193389 0.72031784 -1.5812592e+20
0.0304738 -0.0094365394 0.031904154 0.99372524 0.0028391175 0.11181308 -1.581259e+20
-0.029819055 0.009055635 0.031075595 -0.99923474 -0.0020905538 0.039057478 -1.581259e+20
-0.023782928 0.0094299326 0.040725276 -0.69048935 0.0020638208 0.72333962 -1.5812594e+20
0.020117551 0.0024021268 0.043493867 0.99999738 0.0022910538 1.9894165e-05 -1.5812599e+20
0.024706736 0.0091529591 0.040440451 0.63569009 0.0053467071 0.77192575 -1.5812592e+20
0.030519661 0.0091360705 0.03185818 0.99557388 0.0027536424 0.093941189 -1.581259e+20
-0.029942743 0.028391201 0.031730052 -0.99917632 -0.015549317 0.037481904 -1.581259e+20
-0.024173861 0.026512055 0.040750545 -0.61508077 -0.20203908 0.76213902 -1.5812594e+20
0.024525015 0.026945705 0.041046422 0.34203845 -0.3877736 0.85594469 -1.5812594e+20
0.030367592 0.028169129 0.032280192 0.99628085 -0.018059317 0.08425203 -1.581259e+20
-0.029888863 0.046799425 0.033055395 -0.99998087 0.0035775418 0.005054459 -1.581259e+20
-0.024742484 0.055506289 0.043270886 -0.0017390898 0.75694019 0.65348184 -1.5812599e+20
-0.016737729 0.055712022 0.043318428 -0.0017390898 0.75694019 0.65348184 -1.5812599e+20
-0.013360113 0.055095017 0.043765306 -0.0017390898 0.75694019 0.65348184 -1.5812599e+20
-0.0051638186 0.055513382 0.043293417 -0.0017390898 0.75694019 0.65348184 -1.5812599e+20
0.004140377 0.055538997 0.043495171 -0.0017328064 0.75692993 0.65349382 -1.5812599e+20
0.010876387 0.055860996 0.04312399 -0.0017265229 0.75691956 0.65350574 -1.5812599e+20
0.01607953 0.055593282 0.04356464 -0.0017265229 0.75691956 0.65350574 -1.5812599e+20
0.024566224 0.055636495 0.043417931 -0.001726523 0.75691962 0.6535058 -1.5812599e+20
0.030363865 0.046724658 0.032862 0.99998981 0.0042038718 0.001672162 -1.581259e+20
-0.029658495 0.0607449 0.031705048 -0.80384916 0.57988352 0.13252003 -1.581259e+20
-0.023832932 0.062178645 0.033410937 -0.0022197752 0.97007704 0.24278706 -1.581259e+20
-0.016918492 0.062363576 0.033361625 -0.0022226819 0.9703185 0.24182047 -1.581259e+20
-0.010123015 0.062293023 0.03304318 -0.0022435703 0.97875071 0.20504141 -1.581259e+20
-0.0036223591 0.062249348 0.033651404 -0.00221992 0.96740967 0.25320688 -1.581259e+20
0.0032910558 0.062311236 0.033412844 -0.002217225 0.96533537 0.26100326 -1.581259e+20
0.010211713 0.062307782 0.033347558 -0.002228979 0.97056681 0.24082188 -1.581259e+20
0.017010301 0.062436692 0.033237237 -0.0022368885 0.97448224 0.22445351 -1.581259e+20
0.023794275 0.062509008 0.033264011 -0.0022273308 0.97086442 0.23961912 -1.581259e+20
0.029874649 0.060785513 0.031941652 0.71434909 0.68408108 0.14743946 -1.581259e+20
-0.029261172 -0.030538142 0.044537187 -0.00013986905 0.061319552 0.99811822 -1.5812599e+20
-0.022851454 -0.025753086 0.053704519 -0.99014425 -0.12425777 0.064609483 -1.581259e+20
-0.017141644 -0.028780602 0.056380358 -0.0073861824 -0.85811269 0.5134083 -1.581259e+20
-0.010413145 -0.029201932 0.056158215 -0.16055098 -0.95611274 0.24509548 -1.581259e+20
-0.0035533989 -0.0298164 0.05592202 0.0021918952 -0.95498711 0.29663911 -1.581259e+20
0.0033023483 -0.029883647 0.055918455 0.0022081186 -0.96225381 0.27214479 -1.581259e+20
0.01029996 -0.029318485 0.056412384 0.12156101 -0.9563244 0.26583177 -1.581259e+20
0.017066337 -0.028970784 0.05638602 0.046362475 -0.89314139 0.4473801 -1.581259e+20
0.023363862 -0.025750453 0.055167094 0.98326069 -0.12676118 0.13088182 -1.581259e+20
-0.023032783 -0.009397001 0.053886615 -0.99969226 -0.0033938868 0.024573201 -1.581259e+20
-0.017264383 -0.010498286 0.062269442 0.00010369418 -0.045033112 0.99898553 -1.5812592e+20
-0.012321582 -0.0096838279 0.063306063 -0.61382216 -0.03695884 0.78857875 -1.5812596e+20
0.012144781 -0.010803183 0.064824715 0.96154106 -0.01017263 0.27447274 -1.5812599e+20
0.017457386 -0.010545197 0.062638007 0.21702486 -0.043464553 0.97519791 -1.5812596e+20
0.02348803 -0.0094443299 0.055566158 0.99373096 -0.0027678146 0.11176334 -1.581259e+20
-0.023084287 0.0093397964 0.054429244 -0.99949235 -0.0037180204 0.031641826 -1.581259e+20
-0.016686881 0.0091306083 0.063021578 0.00010406783 -0.045028195 0.99898565 -1.5812594e+20
-0.011945166 0.0090714656 0.063776977 -0.18701924 -0.044659488 0.98134053 -1.5812596e+20
0.01163613 0.01026596 0.065043226 0.76824534 -0.027070891 0.63958287 -1.5812601e+20
0.017773988 0.0098872604 0.061008308 0.33291867 -0.041696478 0.94203317 -1.5812597e+20
0.023466695 0.0091855992 0.0556316 0.99734408 -0.00099753297 0.072827227 -1.581259e+20
-0.030561427 0.036145646 0.046496004 -0.99999738 -0.0022747626 -7.4358002e-05 -1.5812601e+20
-0.023163233 0.027800644 0.055434056 -0.9985112 -0.0263371 0.047767103 -1.581259e+20
-0.016927414 0.027534001 0.064038366 0.0001194893 -0.051538493 0.998671 -1.5812594e+20
-0.010799176 0.029357726 0.064470775 -0.12332239 -0.029658804 0.99192333 -1.5812596e+20
-0.0032936651 0.033492632 0.06455978 -0.00026783408 0.11674793 0.9931615 -1.5812601e+20
0.0037917977 0.032966677 0.064430133 -0.00026770268 0.11674887 0.99316144 -1.5812597e+20
0.010740129 0.031824112 0.064514741 -0.00023943555 0.10440246 0.99453515 -1.5812601e+20
0.017702825 0.028259456 0.06254293 0.18803005 -0.029801957 0.98171103 -1.5812596e+20
0.023496676 0.027554855 0.05620008 0.99885279 -0.026901055 0.039615579 -1.581259e+20
0.029640734 0.036475074 0.047679424 0.7085498 -0.62309307 0.33122846 -1.5812601e+20
-0.029809553 0.046560273 0.048722122 -0.94236308 0.19300529 0.27331427 -1.581259e+20
-0.023512097 0.046005737 0.055749144 -0.71384764 0.39322484 0.57947892 -1.581259e+20
-0.016816776 0.048614442 0.056276966 -0.0014905367 0.6512481 0.75886339 -1.581259e+20
-0.01029975 0.048716884 0.056344967 -0.0015395252 0.67334259 0.73932904 -1.581259e+20
-0.0036993758 0.048850331 0.055617027 -0.0015780063 0.6908583 0.72298849 -1.581259e+20
0.0033521941 0.048938856 0.055737574 -0.0015840153 0.69372642 0.72023678 -1.581259e+20
0.01003899 0.048881799 0.056002375 -0.0015346457 0.67202657 0.74052542 -1.581259e+20
0.016946642 0.049020004 0.055974171 0.0073782038 0.68019426 0.73299479 -1.581259e+20
0.023660365 0.046267111 0.056163091 0.61745381 0.4828077 0.62100518 -1.581259e+20
0.030010892 0.047055446 0.049429987 0.86644268 0.31005371 0.39133596 -1.581259e+20
-0.029362377 0.057845347 0.044800073 -0.55615413 0.62854922 0.54370809 -1.5812601e+20
-0.023345698 0.057711765 0.045182165 -0.00173909 0.75694019 0.65348184 -1.5812601e+20
-0.017162705 0.057296187 0.045136895 -0.00173909 0.75694019 0.65348184 -1.5812601e+20
-0.01025406 0.057158906 0.045807123 -0.00173909 0.75694019 0.65348184 -1.5812601e+20
-0.0040964582 0.057244465 0.045952156 -0.0017380427 0.75693846 0.65348387 -1.5812601e+20
0.0033918673 0.05730658 0.045436826 -0.0017319089 0.75692844 0.65349549 -1.5812601e+20
0.0099316007 0.057394579 0.04549665 -0.0017274898 0.75692117 0.65350395 -1.5812601e+20
0.016726829 0.057783931 0.045046531 -0.0017265229 0.75691962 0.65350568 -1.5812601e+20
0.023797857 0.057716157 0.045332707 -0.0017265229 0.75691956 0.65350574 -1.5812601e+20
0.030097187 0.057363465 0.045148179 0.081324726 0.75449497 0.65124786 -1.5812601e+20
-0.02133806 -0.020828173 0.066070452 0.00010409174 -0.045038547 0.99898529 -1.5812599e+20
-0.014185491 -0.021540867 0.077182472 -0.99874252 -0.0045184651 0.049929067 -1.5812597e+20
-0.010329334 -0.022395015 0.077317081 -0.80501318 -0.59320492 -0.0078510428 -1.581259e+20
-0.0038357037 -0.023352988 0.076603331 0.0022891471 -0.99889946 -0.046847291 -1.581259e+20
0.0032389918 -0.023272581 0.07672786 0.0022882258 -0.99849588 -0.054779004 -1.581259e+20
0.010244561 -0.022380281 0.077101871 0.77314538 -0.63398111 -0.01772709 -1.581259e+20
0.014272515 -0.021048965 0.078751273 0.99805415 -0.00053983653 0.062351875 -1.5812601e+20
-0.022942781 -0.0098216338 0.066638373 -0.89428669 -0.022189366 0.44694397 -1.5812599e+20
-0.014175074 -0.0088839578 0.076503396 -0.99899417 -0.0042945831 0.044633288 -1.5812592e+20
-0.011552531 -0.0098140026 0.077511691 -0.99999738 -0.0022925336 -2.1951088e-05 -1.581259e+20
0.011391597 -0.0094999494 0.077059664 0.99999738 0.0022809457 -1.2362118e-05 -1.581259e+20
0.014588876 -0.0096301381 0.076361172 0.97799426 -0.0071728635 0.20850848 -1.581259e+20
0.021663865 -0.005281881 0.066353492 0.16450629 -0.044041906 0.98539227 -1.5812601e+20
-0.022538953 0.008019249 0.066623174 -0.44707355 -0.041295078 0.89354348 -1.5812599e+20
-0.014165446 0.0079813218 0.075911812 -0.99798149 -0.0051333276 0.063297927 -1.5812592e+20
-0.011012338 0.0087495968 0.077414431 -0.94698405 0.30097342 0.11241077 -1.581259e+20
-0.0033710091 0.013804164 0.079043068 -0.0020913782 0.91383392 0.40608272 -1.5812592e+20
0.0032006816 0.013790291 0.079194605 -0.002090282 0.91443932 0.40471765 -1.5812592e+20
0.010785582 0.0089927185 0.077138796 0.92269695 0.35092419 0.15963253 -1.581259e+20
0.015123916 0.0086156987 0.073802516 0.84557933 -0.022108134 0.53339189 -1.581259e+20
0.022966327 0.010420473 0.066631302 0.53014827 -0.036972392 0.84709847 -1.5812596e+20
-0.022991916 0.030335059 0.0673666 -0.85865372 0.013085671 0.512389 -1.5812597e+20
-0.01677262 0.030804105 0.067984402 -0.15801604 0.045620374 0.98638213 -1.5812594e+20
-0.01052139 0.027363328 0.068693072 -0.30998549 0.24312089 0.91913068 -1.5812592e+20
-0.0035659929 0.026977912 0.069339618 -0.00054727291 0.2387369 0.97108406 -1.5812592e+20
0.0033354585 0.027713949 0.069290027 -0.00045397267 0.19807969 0.98018587 -1.5812592e+20
0.01004711 0.026953746 0.069026463 0.34073851 0.20749509 0.9169749 -1.5812592e+20
0.017182468 0.028408607 0.068099372 0.10213045 -0.066417471 0.99255133 -1.5812592e+20
0.023024945 0.028815763 0.067270964 0.28952184 0.010409723 0.95711482 -1.5812594e+20
-0.02290895 0.041154768 0.067380324 -0.46172991 0.39416096 0.79463369 -1.5812601e+20
-0.017324589 0.041906849 0.067376904 -0.0012136387 0.53177172 0.84688687 -1.5812601e+20
-0.010122996 0.041999057 0.067540392 -0.0013175664 0.57765198 0.81628209 -1.5812599e+20
-0.0031214077 0.042168111 0.067317814 -0.0012122124 0.5317753 0.84688467 -1.5812601e+20
0.0029789663 0.041391078 0.067662939 -0.00079882331 0.35042915 0.93658888 -1.5812599e+20
0.0098922029 0.041298639 0.067497239 -0.00087709865 0.38476706 0.92301333 -1.5812597e+20
0.016926898 0.041667748 0.067321755 -0.001032438 0.45291153 0.89155495 -1.5812597e+20
0.022567898 0.040841207 0.067255408 0.06833303 0.38048947 0.92225724 -1.5812599e+20
-0.014024299 -0.021920981 0.099742204 -0.99999738 -0.0022854323 -5.1370002e-06 -1.5812597e+20
-0.010650531 -0.023455719 0.099025041 -0.86520517 -0.50141746 0.00077980146 -1.581259e+20
-0.0037807685 -0.025201332 0.098616958 0.0022913096 -0.99999696 0.00091002753 -1.581259e+20
0.0032426794 -0.025169047 0.098626092 0.0022916521 -0.99999714 0.0006757197 -1.581259e+20
0.010522208 -0.023385065 0.098819546 0.83899295 -0.54414064 0.0013085656 -1.581259e+20
0.013949389 -0.022652572 0.098716721 0.99999732 0.0022910726 2.8890765e-05 -1.5812594e+20
-0.013992947 -0.0092718657 0.098963685 -0.99999738 -0.0022906018 -3.2392404e-06 -1.5812592e+20
-0.011271372 -0.009743317 0.098762445 -0.99999738 -0.0022845946 1.5902095e-05 -1.581259e+20
0.011443153 -0.0093366997 0.099026375 0.99999732 0.002283734 -1.9452438e-05 -1.581259e+20
0.01394029 -0.010044519 0.098401159 0.99999744 0.0022852302 -1.5763675e-05 -1.581259e+20
-0.014006324 0.007621211 0.10003113 -0.99999744 -0.0022801899 -4.510312e-06 -1.5812592e+20
-0.010713504 0.0094685797 0.099513836 -0.89296967 0.43598184 -0.11191543 -1.581259e+20
-0.003383226 0.014824672 0.099368133 -0.0022144858 0.96901542 -0.2469905 -1.581259e+20
0.003247194 0.014818319 0.099290453 -0.0022149542 0.96804637 -0.25076154 -1.581259e+20
0.010878066 0.0096277092 0.099947132 0.90076047 0.4211235 -0.10623351 -1.581259e+20
0.013935993 0.0078133866 0.098930299 0.99999738 0.0022799629 5.2584364e-06 -1.5812592e+20
-0.014050712 -0.020949196 0.11902016 -0.99999744 -0.0022881315 -1.935719e-05 -1.5812601e+20
-0.010275022 -0.022051034 0.12016379 -0.7665534 -0.62703407 0.13865171 -1.581259e+20
-0.0036313799 -0.023194285 0.11976323 0.0022241739 -0.97921079 0.20283312 -1.581259e+20
0.0031962318 -0.023024386 0.12049934 0.0022194101 -0.97739929 0.21139012 -1.581259e+20
0.010311166 -0.021944769 0.12025366 0.78383613 -0.60669547 0.13236935 -1.581259e+20
0.014006306 -0.021424267 0.1188736 0.99999738 0.0022723279 5.7103716e-06 -1.5812599e+20
-0.013973747 -0.0090094991 0.12025715 -0.99999738 -0.0022771743 -6.2145177e-06 -1.5812592e+20
-0.011395941 -0.0096050873 0.12080959 -0.99999744 -0.0022772327 -4.4514058e-05 -1.581259e+20
0.011430493 -0.0093389004 0.12062235 0.99999738 0.002284498 4.0799596e-06 -1.581259e+20
0.014027705 -0.0099288998 0.12019499 0.99999738 0.0022777389 1.9427614e-05 -1.581259e+20
-0.013981039 0.0091242921 0.12033579 -0.99999738 -0.0022952426 1.9717509e-05 -1.5812592e+20
-0.011168708 0.010042303 0.12027321 -0.98575503 0.16649131 -0.023823803 -1.581259e+20
-0.0037993793 0.017913021 0.11512674 -0.0022499273 0.98930377 -0.14585289 -1.5812594e+20
0.0026212744 0.01796091 0.11507129 -0.0022575317 0.98965967 -0.14341769 -1.5812594e+20
0.011161505 0.010257793 0.12085581 0.98666346 0.16085277 -0.024932228 -1.581259e+20
0.013961043 0.0098366495 0.1200159 0.99999732 0.0022914908 2.3045211e-05 -1.581259e+20
-0.01390442 0.022668401 0.12812354 -0.99413109 0.10098593 -0.038796067 -1.5812601e+20
-0.010177133 0.021276589 0.12521802 -0.25711656 0.8198483 -0.51160514 -1.5812592e+20
-0.003753341 0.020822428 0.12451916 -0.0020028448 0.87611264 -0.4821021 -1.5812592e+20
0.0033636815 0.02082102 0.12446513 -0.00206211 0.90107918 -0.43364969 -1.5812592e+20
0.010126549 0.020887472 0.12540126 0.27448335 0.80818129 -0.52105844 -1.5812592e+20
0.013863731 0.021510385 0.12647687 0.99221873 0.01521723 -0.12357364 -1.5812601e+20
-0.0080624223 -0.056832641 0.15381087 0.002272842 -0.99178225 -0.12791705 -1.5812599e+20
-0.0028967112 -0.056943968 0.15292919 -0.020636575 -0.90215451 -0.43091917 -1.5812599e+20
0.0028790541 -0.056752294 0.15317558 0.070837185 -0.71599126 -0.69450605 -1.5812601e+20
0.0069718743 -0.056240618 0.15363088 0.080985799 -0.71354461 -0.69591331 -1.5812599e+20
-0.014118969 -0.049164467 0.15295739 -0.99999732 -0.0023306757 5.8744299e-05 -1.5812599e+20
-0.010466816 -0.04629162 0.14990255 -0.6373629 -0.12748288 -0.75994515 -1.581259e+20
-0.0032217968 -0.047463953 0.14915113 -0.02739658 -0.1882178 -0.98174512 -1.581259e+20
0.003039324 -0.047974735 0.14940646 0.027690515 -0.19171487 -0.98105997 -1.5812592e+20
0.0099088922 -0.046911106 0.14965139 0.46368405 -0.15461923 -0.87240469 -1.581259e+20
0.014197025 -0.046775348 0.15073879 0.99861276 0.0077416417 -0.052082799 -1.5812599e+20
-0.013627935 -0.022039471 0.14526574 -0.99999738 -0.0022632617 -9.0287918e-05 -1.5812601e+20
-0.01068494 -0.026540618 0.14645599 -0.84070516 -0.3381246 -0.42294979 -1.581259e+20
-0.0036608796 -0.025221132 0.14286059 0.001640956 -0.71605331 -0.69804364 -1.581259e+20
0.0032953564 -0.02563088 0.14336145 0.0027661994 -0.68115389 -0.73213506 -1.581259e+20
0.010429282 -0.025461843 0.14540696 0.76987308 -0.48160782 -0.41874737 -1.581259e+20
0.014143762 -0.026265126 0.14883925 0.99999732 0.0022859836 -0.00010301479 -1.5812596e+20
-0.013906316 -0.0091784876 0.14101613 -0.99999732 -0.0022923485 -2.4071293e-05 -1.5812592e+20
-0.011274794 -0.0099725714 0.14238414 -0.99955714 -0.029751481 -0.00064448937 -1.581259e+20
-0.0040829661 -0.018520921 0.1355449 0.002275063 -0.99274099 0.12025068 -1.5812599e+20
0.0010843185 -0.018555522 0.13580219 0.0022794276 -0.99462825 0.10348621 -1.5812601e+20
0.011301822 -0.009653803 0.14180112 0.99948525 -0.031953502 0.0028468485 -1.581259e+20
0.01403729 -0.010263297 0.14226092 0.99999738 0.002292254 -1.6280512e-05 -1.581259e+20
-0.014221665 0.0086879302 0.14305966 -0.99168599 0.005270578 -0.12857296 -1.581259e+20
-0.011291839 0.0094127292 0.14222521 -0.99999851 0.0016628209 0.0004234706 -1.581259e+20
0.011409485 0.0092571536 0.14263315 0.99999738 0.0022936999 5.5726928e-06 -1.581259e+20
0.01403842 0.0091696903 0.14240329 0.99999744 0.002275798 0.00014928872 -1.581259e+20
-0.014003424 0.026061678 0.14210543 -0.99999738 -0.0022816204 2.2755139e-05 -1.5812592e+20
-0.010793555 0.02770306 0.14184821 -0.89108658 0.45171165 -0.043833662 -1.581259e+20
-0.0037504591 0.031291552 0.14107525 -0.002267628 0.99098343 -0.13396534 -1.581259e+20
0.0035084451 0.031186575 0.14099884 -0.0022801566 0.99567783 -0.092846073 -1.581259e+20
0.01076211 0.02791406 0.14250623 0.89373833 0.44807181 -0.021526625 -1.581259e+20
0.01402057 0.026518196 0.14197823 0.99845117 0.052891444 0.017253498 -1.5812592e+20
-0.028391261 -0.058246113 0.17374076 -0.46092001 -0.230545 -0.8569724 -1.5812601e+20
-0.023262551 -0.059456885 0.16999149 -0.60251683 -0.6578266 -0.45192659 -1.5812592e+20
-0.016939398 -0.060589533 0.16608882 -0.32779014 -0.84819847 -0.41606832 -1.581259e+20
-0.010010313 -0.062406525 0.16545664 -0.19423328 -0.90992486 -0.36648336 -1.581259e+20
-0.0034178812 -0.063329101 0.16482736 -0.056533139 -0.91339213 -0.40313637 -1.581259e+20
0.0031353014 -0.063258685 0.1649344 0.039677519 -0.92443419 -0.37927186 -1.581259e+20
0.010031186 -0.062163483 0.1654346 0.12912908 -0.93468517 -0.3311936 -1.581259e+20
0.016843552 -0.060692489 0.16654575 0.26435444 -0.89469451 -0.36005348 -1.581259e+20
0.023091825 -0.059143286 0.16962619 0.59531903 -0.69866651 -0.39681259 -1.5812592e+20
0.028366825 -0.0578053 0.17390007 0.89121169 -0.32973737 -0.31147227 -1.5812601e+20
-0.028965795 -0.045698881 0.17091352 -0.87505996 0.014669397 -0.48379228 -1.581259e+20
-0.024369894 -0.047100108 0.16475996 -0.85575515 -0.077669054 -0.51151788 -1.581259e+20
-0.017317429 -0.047749702 0.15692672 -0.47127953 -0.020769991 -0.88173932 -1.581259e+20
-0.011379059 -0.049553949 0.15520822 -0.44671476 -0.062327612 -0.89250273 -1.5812594e+20
-0.0032283342 -0.055427663 0.15450785 -0.016004601 -0.65111613 -0.75880933 -1.5812601e+20
0.0043831989 -0.055394989 0.15487292 0.019514941 -0.38432774 -0.92299038 -1.5812601e+20
0.011839314 -0.047862757 0.15558305 0.82409382 -0.043211408 -0.56480271 -1.5812594e+20
0.016941549 -0.048095476 0.15764377 0.49414635 -0.044263836 -0.86825114 -1.581259e+20
0.024192333 -0.047037441 0.16504297 0.85627931 -0.068516903 -0.51194835 -1.581259e+20
0.028796459 -0.045664351 0.17094211 0.92678005 0.0032032956 -0.37559095 -1.581259e+20
-0.028254824 -0.030669622 0.17148548 -0.96439809 0.14953142 -0.21812069 -1.5812592e+20
-0.024266042 -0.028006146 0.16677062 -0.8506397 0.18809144 -0.49095181 -1.581259e+20
-0.017157318 -0.028514741 0.15902194 -0.43646148 0.23374058 -0.86883062 -1.581259e+20
-0.011594009 -0.026597442 0.15622388 -0.92520678 0.060363166 -0.37463146 -1.5812592e+20
0.011764632 -0.026845727 0.15685736 0.9013837 0.11767078 -0.41672656 -1.5812592e+20
0.016499557 -0.028397597 0.16002516 0.47403044 0.23720843 -0.84795475 -1.581259e+20
0.024065031 -0.027961483 0.1675324 0.86211085 0.21341485 -0.45958564 -1.581259e+20
0.028593209 -0.031101787 0.1710919 0.98771542 0.13451551 0.079522096 -1.5812592e+20
-0.027781492 -0.0095597459 0.17315988 -0.95636833 0.011068577 -0.29195395 -1.5812594e+20
-0.024051283 -0.0097027589 0.16924669 -0.81502974 0.066436276 -0.57559788 -1.581259e+20
-0.016515531 -0.0089453589 0.16225284 -0.58174169 0.10034202 -0.80716044 -1.581259e+20
-0.011316481 -0.00904408 0.15755872 -0.97528166 0.0079076039 -0.22082369 -1.5812592e+20
0.011815795 -0.0093048876 0.15853263 0.9870103 0.021021243 -0.15927564 -1.581259e+20
0.016495302 -0.0091730617 0.16309634 0.58176929 0.13109905 -0.80271882 -1.581259e+20
0.024082839 -0.0096500115 0.17011259 0.85273516 0.054436803 -0.51949918 -1.581259e+20
0.02823134 -0.0096136043 0.17381221 0.96735877 0.0076715169 -0.25329453 -1.5812597e+20
-0.027936773 0.0080423085 0.17412981 -0.90279222 0.042663816 -0.42795569 -1.5812596e+20
-0.023791227 0.0093818093 0.17105184 -0.74230105 0.11918006 -0.65938246 -1.581259e+20
-0.016620751 0.0092887459 0.16363545 -0.67903429 0.12800647 -0.7228601 -1.581259e+20
-0.011575364 0.010360425 0.15848847 -0.97236496 0.0089008007 -0.23329611 -1.581259e+20
0.011672461 0.0096022179 0.15929745 0.9798612 0.019053981 -0.19876862 -1.581259e+20
0.0165106 0.0095871324 0.16490747 0.67603838 0.10813634 -0.72888863 -1.581259e+20
0.023718469 0.0087155392 0.17191637 0.76092631 0.12938438 -0.63580728 -1.581259e+20
0.028137228 0.0098574422 0.17415723 0.91704744 0.043571051 -0.39639074 -1.5812601e+20
-0.028215036 0.019577721 0.17495823 -0.81086308 0.25117517 -0.52859443 -1.5812599e+20
-0.022391872 0.024221377 0.17306845 -0.80005717 0.28979027 -0.52529043 -1.5812594e+20
-0.016653487 0.02777634 0.16821128 -0.770634 0.18247716 -0.61059427 -1.581259e+20
-0.01095791 0.029958334 0.16064367 -0.90264446 0.3904911 -0.18096891 -1.581259e+20
-0.0034702073 0.03498153 0.15927145 -0.015182969 0.87247002 -0.48843166 -1.5812592e+20
0.0033895995 0.034709513 0.15940644 0.0065378598 0.88312399 -0.46909416 -1.5812592e+20
0.011040094 0.030335851 0.16171224 0.88770533 0.36998132 -0.27403119 -1.581259e+20
0.016366901 0.027601112 0.16807492 0.82313198 0.17558306 -0.54002255 -1.581259e+20
0.02248003 0.023693061 0.17352691 0.78603375 0.3386822 -0.51715124 -1.5812594e+20
-0.020882508 0.040820103 0.17465214 -0.79136217 0.13619348 -0.59598422 -1.5812599e+20
-0.016219607 0.044942979 0.17263332 -0.68932998 0.18575428 -0.70022815 -1.581259e+20
-0.010059437 0.046494614 0.16984108 -0.45727021 0.28064319 -0.84388584 -1.581259e+20
-0.0036068456 0.047066268 0.16811645 -0.15562323 0.35018334 -0.92366284 -1.5812592e+20
0.0034245565 0.046634309 0.16832709 0.18253721 0.26814285 -0.94592786 -1.581259e+20
0.010323221 0.046698794 0.17055652 0.46727604 0.27497289 -0.84026366 -1.581259e+20
0.016245326 0.044885047 0.1732002 0.69177467 0.21233945 -0.69018829 -1.5812592e+20
0.020531356 0.041535497 0.17576802 0.78784168 0.17684968 -0.58994037 -1.5812599e+20
-0.015641935 0.056525119 0.17457962 -0.53485137 0.63964862 -0.55207211 -1.5812599e+20
-0.0089557748 0.062529035 0.17377062 -0.39005098 0.42387518 -0.81742889 -1.5812594e+20
-0.003268013 0.064184338 0.17328832 -0.16783702 0.41114372 -0.89598644 -1.5812592e+20
0.0032409346 0.062329981 0.1730914 0.15679784 0.51252055 -0.84423757 -1.5812592e+20
0.0094279097 0.061166853 0.17387106 0.3998757 0.64226413 -0.65390837 -1.5812596e+20
0.014111425 0.057581555 0.17502336 0.43230358 0.7572239 -0.48961774 -1.5812599e+20
-0.0073594153 0.081981495 0.17490244 -0.38239738 0.14086658 -0.91319704 -1.5812599e+20
-0.0028758068 0.081040733 0.17455107 -0.18899445 0.11945952 -0.97468483 -1.5812596e+20
0.0030408984 0.082515277 0.17457232 0.15473954 0.13795996 -0.97827542 -1.5812597e+20
-0.028813904 -0.058679555 0.18311791 -0.891954 -0.44372472 0.086754799 -1.5812594e+20
-0.023737049 -0.060929239 0.18686277 -0.67151237 -0.7285217 0.13537839 -1.581259e+20
-0.016862122 -0.063840277 0.18672538 -0.29119846 -0.95634884 -0.024503021 -1.581259e+20
-0.010432621 -0.06613218 0.18642598 -0.20576738 -0.97543347 -0.078672387 -1.581259e+20
-0.0037140255 -0.067535542 0.18688126 -0.040524062 -0.99736649 -0.060148224 -1.581259e+20
0.0032920958 -0.067482248 0.18684019 0.026187904 -0.99811965 -0.055419482 -1.581259e+20
0.010304971 -0.065982431 0.18649952 0.11459262 -0.99067074 -0.073756665 -1.581259e+20
0.016808564 -0.063640639 0.18702206 0.18879469 -0.98176372 -0.022281183 -1.581259e+20
0.023656715 -0.060783122 0.18659261 0.6556403 -0.73728293 0.16294082 -1.581259e+20
0.028842 -0.058275376 0.18310222 0.9080981 -0.39703277 0.13312693 -1.5812594e+20
-0.030126058 -0.04643748 0.18428357 -0.99142462 -0.088534936 0.096119314 -1.581259e+20
-0.025412017 -0.048320182 0.19283116 -0.9629764 -0.16489729 0.21327256 -1.581259e+20
0.025333397 -0.047994506 0.1935183 0.91402 -0.15025817 0.37681562 -1.581259e+20
0.030192424 -0.046564687 0.18445927 0.98422015 -0.092341512 0.15094334 -1.581259e+20
-0.029217148 -0.030691391 0.18538409 -0.96635133 0.25648618 0.019492129 -1.581259e+20
-0.025433227 -0.026381452 0.18834932 -0.99550796 0.055810988 0.076479003 -1.581259e+20
0.025467841 -0.02669353 0.18888259 0.99331123 0.057059269 0.10038432 -1.581259e+20
0.029286552 -0.030552952 0.18459496 0.96635479 0.23758081 0.098558202 -1.581259e+20
-0.028298814 -0.009384729 0.18720628 -0.99934137 -0.021191075 0.029459007 -1.581259e+20
-0.025671611 -0.0096312826 0.18727188 -0.99937171 -0.026323829 0.023733057 -1.581259e+20
0.025618201 -0.0094936686 0.18743753 0.99979019 -0.020435039 -0.0013987559 -1.581259e+20
0.028410118 -0.0089420825 0.18582289 0.99176389 -0.024589965 0.12569669 -1.581259e+20
-0.028953217 0.010440125 0.1868218 -0.99983507 0.0094389748 0.015515734 -1.581259e+20
-0.026061753 0.0076154908 0.18618794 -0.99715108 -0.075289711 -0.0046221754 -1.581259e+20
0.025980007 0.0080521069 0.18753451 0.99887121 -0.02750393 0.03872655 -1.581259e+20
0.028894305 0.010609926 0.18646906 0.99864852 -0.011515048 0.050680693 -1.581259e+20
-0.02864543 0.021081654 0.18682237 -0.89218473 0.45167071 -0.00030128824 -1.5812592e+20
-0.023938905 0.028966743 0.18719062 -0.97621804 0.21080627 -0.050587669 -1.581259e+20
-0.019575885 0.030255675 0.17910796 -0.86074835 0.12157701 -0.4942987 -1.5812601e+20
0.019299271 0.032285698 0.17870194 0.87747264 0.10020432 -0.46904245 -1.5812597e+20
0.023709442 0.028680211 0.18736166 0.9809069 0.18930648 -0.044549894 -1.581259e+20
0.028813878 0.020788969 0.18701391 0.91910124 0.39387152 0.010875464 -1.5812592e+20
-0.022642223 0.045767676 0.18829572 -0.98540926 0.15147123 -0.077621497 -1.581259e+20
-0.018468685 0.050021775 0.18442798 -0.81001598 0.5104872 -0.28857744 -1.581259e+20
-0.012713683 0.05377556 0.18067998 -0.57675666 0.39956573 -0.71252996 -1.5812599e+20
0.011544198 0.054369599 0.17593251 0.40380055 0.79768723 -0.44792897 -1.5812599e+20
0.018279472 0.049706154 0.18330319 0.83628535 0.41827962 -0.35449827 -1.581259e+20
0.02236327 0.045436285 0.18887265 0.98098439 0.18804741 -0.048039053 -1.581259e+20
-0.020779811 0.060967837 0.19003503 -0.70092112 0.7132358 -0.0020637379 -1.5812601e+20
-0.016870324 0.065889433 0.1887217 -0.97929412 0.049809143 -0.1962193 -1.581259e+20
-0.010487314 0.065358862 0.17974886 -0.58641559 -0.03159295 -0.809394 -1.581259e+20
-0.0036849459 0.064728171 0.17851785 -0.1824031 -0.4791902 -0.8585487 -1.5812594e+20
0.0032242273 0.065826967 0.178562 0.19633879 -0.28911936 -0.93694246 -1.5812592e+20
0.010294539 0.065008521 0.18119477 0.59696597 -0.18201187 -0.7813471 -1.581259e+20
0.016498186 0.065430529 0.18920653 0.98429549 0.072336115 -0.16102752 -1.581259e+20
0.021501932 0.059085399 0.18557449 0.88093096 0.43240622 -0.19231595 -1.5812599e+20
-0.02084446 0.079610527 0.19126901 -0.99146372 0.011293657 -0.12989271 -1.5812599e+20
-0.016702643 0.084282734 0.18985659 -0.96253401 0.10271477 -0.25095418 -1.581259e+20
-0.010432256 0.084581099 0.18055791 -0.59787244 0.15368071 -0.78672159 -1.581259e+20
-0.0032648181 0.085312873 0.17838061 -0.19986227 0.18344495 -0.96249837 -1.5812592e+20
0.0034555183 0.085302673 0.1784693 0.21810161 0.18072127 -0.9590472 -1.5812592e+20
0.010330231 0.08431375 0.18153189 0.63024735 0.15111527 -0.76154608 -1.581259e+20
0.016367219 0.084094085 0.19058779 0.97245401 0.10284559 -0.20917913 -1.581259e+20
0.020703338 0.081186555 0.19379416 0.99999738 0.0022974326 -6.9639944e-05 -1.5812599e+20
-0.015290626 0.097529598 0.19268683 -0.90689665 0.39873004 -0.13620858 -1.5812592e+20
-0.010247198 0.10068362 0.18842784 -0.53196502 0.74730933 -0.3981733 -1.581259e+20
-0.0036553917 0.10357556 0.18736883 -0.39169168 0.68532133 -0.61393189 -1.581259e+20
0.0030786004 0.103417 0.18715003 0.34920219 0.68080735 -0.64386284 -1.581259e+20
0.010100498 0.10073527 0.18940742 0.61646354 0.70710123 -0.34638205 -1.581259e+20
0.014983704 0.096975803 0.19220772 0.90120131 0.40003765 -0.16675155 -1.5812592e+20
-0.0027886492 0.11476772 0.19550787 -0.53604835 0.72692847 -0.42921692 -1.5812596e+20
0.0019580373 0.11470537 0.19557258 0.44195861 0.81025028 -0.38492471 -1.5812596e+20
-0.021927953 -0.058419198 0.19971962 -0.68969566 -0.39819995 0.60477823 -1.5812601e+20
-0.016728792 -0.060073353 0.20174542 -0.48902771 -0.54176241 0.68362659 -1.5812592e+20
-0.01018116 -0.061316885 0.20332031 -0.29387879 -0.64961642 0.70116603 -1.5812592e+20
-0.0036006216 -0.062004294 0.20380323 -0.075489126 -0.78754044 0.61162198 -1.5812592e+20
0.0032622495 -0.062142987 0.20382842 0.057372164 -0.77542299 0.62883031 -1.581259e+20
0.010171342 -0.061371386 0.20329894 0.27848345 -0.67326868 0.68494987 -1.5812592e+20
0.016825078 -0.059810273 0.20161779 0.50751042 -0.53000015 0.67936224 -1.5812592e+20
0.022189608 -0.058090378 0.19918792 0.72061622 -0.31303963 0.61864239 -1.5812601e+20
-0.027567398 -0.044335034 0.19833408 -0.79314369 -0.065142505 0.60554063 -1.5812599e+20
-0.023250852 -0.046077192 0.20126262 -0.74021274 -0.12465587 0.66071624 -1.581259e+20
-0.017045395 -0.046459593 0.20571387 -0.54464537 -0.118839 0.83020407 -1.581259e+20
-0.010181304 -0.046939507 0.20880401 -0.31117076 -0.13645889 0.9405061 -1.581259e+20
-0.0035212759 -0.046594806 0.20994666 -0.09049128 -0.14124717 0.98582989 -1.581259e+20
0.0032777714 -0.047418911 0.2098151 0.070424199 -0.16114266 0.98441523 -1.581259e+20
0.010248491 -0.046571482 0.20879933 0.30376744 -0.13911936 0.94253439 -1.581259e+20
0.01721625 -0.046970811 0.20552136 0.53517681 -0.14303766 0.83254194 -1.581259e+20
0.023305496 -0.046278719 0.20120899 0.74131364 -0.10130253 0.66346955 -1.581259e+20
0.027688157 -0.04001721 0.19916978 0.79347253 -0.061519362 0.60548884 -1.5812599e+20
-0.027953546 -0.030373601 0.1982895 -0.83334166 0.18190871 0.52196836 -1.5812601e+20
-0.023032947 -0.028671611 0.2010631 -0.74894542 0.094937734 0.6557954 -1.581259e+20
-0.016792322 -0.027999645 0.20538446 -0.48316869 0.11934212 0.86735547 -1.581259e+20
-0.010329985 -0.028219776 0.20834865 -0.28823742 0.079286881 0.95427084 -1.581259e+20
-0.003916882 -0.0284159 0.21001776 -0.1170025 0.051905315 0.99177432 -1.581259e+20
0.003159005 -0.028104028 0.21009174 0.090900362 0.03114653 0.99537277 -1.581259e+20
0.010380878 -0.028324841 0.20842466 0.29348075 0.091472395 0.95157856 -1.581259e+20
0.017027808 -0.027987946 0.20540722 0.49460986 0.070470542 0.86625344 -1.581259e+20
0.023170285 -0.0286639 0.20114665 0.74747908 0.079113208 0.65955752 -1.581259e+20
0.027931303 -0.030596031 0.19889306 0.78866577 0.21914323 0.57444102 -1.5812601e+20
-0.027564157 -0.0092387088 0.19868188 -0.92383015 -0.041900951 0.38050237 -1.5812601e+20
-0.023205662 -0.0093093133 0.20176941 -0.70313859 -0.050385069 0.70926547 -1.581259e+20
-0.016857842 -0.0092547266 0.20601644 -0.50674272 -0.047545902 0.86078519 -1.581259e+20
-0.010231941 -0.0098567475 0.20986335 -0.38668442 -0.096782081 0.91711968 -1.581259e+20
-0.0034902331 -0.0094039245 0.21171081 -0.13028657 -0.10340874 0.98606896 -1.581259e+20
0.0032304688 -0.0095702047 0.21161221 0.11777014 -0.10301024 0.98768365 -1.581259e+20
0.010342417 -0.0093853669 0.20983396 0.37004817 -0.091298334 0.92451555 -1.581259e+20
0.016924517 -0.0090368399 0.20608197 0.44565463 -0.038417645 0.89438021 -1.581259e+20
0.023304895 -0.0098063061 0.20137092 0.71513122 -0.062236156 0.69621408 -1.581259e+20
0.027426545 -0.0081326608 0.20015597 0.84341812 -0.053966247 0.53454059 -1.5812601e+20
-0.027824447 0.0088839363 0.19916923 -0.90888691 0.0056345803 0.41700462 -1.5812597e+20
-0.023363303 0.0088517759 0.20211422 -0.74980831 0.053248376 0.65950894 -1.581259e+20
-0.016689716 0.0094939051 0.20795417 -0.58952361 0.012435424 0.80765533 -1.581259e+20
-0.010107221 0.0090690916 0.21170607 -0.38991159 -0.02476155 0.92051935 -1.581259e+20
-0.0036015676 0.0095636183 0.21360843 -0.13473199 -0.031157225 0.99039209 -1.581259e+20
0.0033317967 0.0093596382 0.21343228 0.12430748 -0.025472108 0.99191678 -1.581259e+20
0.010158963 0.0095212413 0.21165152 0.37928715 -0.017148595 0.92512012 -1.581259e+20
0.016871557 0.0093075028 0.20748101 0.5929004 0.002645819 0.80527145 -1.581259e+20
0.023374708 0.0092126681 0.20196752 0.69104427 0.058487304 0.7204423 -1.581259e+20
0.027791858 0.0090246676 0.19958614 0.88217664 0.038794022 0.46931806 -1.5812597e+20
-0.027985899 0.018744908 0.1982342 -0.0011305484 0.56540161 0.82481503 -1.5812599e+20
-0.022178881 0.027341764 0.20107841 -0.87299693 0.077461109 0.48153514 -1.581259e+20
-0.017016098 0.027782807 0.20606896 -0.7006768 0.069775492 0.71005869 -1.581259e+20
-0.010340012 0.028488634 0.21076132 -0.42004573 -0.015100095 0.9073773 -1.581259e+20
-0.0037235492 0.027731635 0.2127721 -0.14930382 0.0064710816 0.98877019 -1.581259e+20
0.0033179494 0.028245863 0.21283595 0.14489347 0.015122858 0.98933166 -1.581259e+20
0.010550315 0.028208334 0.21058702 0.45189613 0.00018439163 0.89207053 -1.581259e+20
0.01710158 0.028186813 0.20577911 0.69658959 0.0712566 0.71392262 -1.581259e+20
0.022065623 0.026661195 0.20095438 0.86051631 0.13883039 0.49014068 -1.5812592e+20
0.028120518 0.019075699 0.1987367 0.23401415 0.56474119 0.79139423 -1.5812599e+20
-0.021982037 0.044928625 0.20013949 -0.90329671 0.08709076 0.42008379 -1.5812594e+20
-0.017101927 0.046895325 0.20437667 -0.7349543 0.25769752 0.62724334 -1.581259e+20
-0.010343997 0.047768962 0.2093583 -0.45402715 0.20709112 0.86658669 -1.581259e+20
-0.0039691557 0.047370877 0.21165611 -0.17676522 0.20940115 0.96171993 -1.581259e+20
0.0031459744 0.046853486 0.21189417 0.18497458 0.18664214 0.9648571 -1.581259e+20
0.010621075 0.048066575 0.20902704 0.48359656 0.19001044 0.85441822 -1.581259e+20
0.017224206 0.046970353 0.20367493 0.74581635 0.26552957 0.61094362 -1.581259e+20
0.021867573 0.044859029 0.20005919 0.89543897 0.094392434 0.43506223 -1.5812594e+20
-0.015822671 0.066681534 0.20177327 -0.86905462 -0.072841153 0.48932421 -1.581259e+20
-0.010442118 0.066363566 0.20654052 -0.58486217 -0.12394819 0.80160654 -1.581259e+20
-0.0037104965 0.065844394 0.20975542 -0.22229543 -0.13997687 0.96487892 -1.581259e+20
0.0031968832 0.065694779 0.20968388 0.21962036 -0.12379082 0.96769971 -1.581259e+20
0.010169931 0.066286497 0.20655279 0.60980552 -0.11295752 0.78446019 -1.581259e+20
0.015549459 0.067358829 0.20127207 0.86985677 -0.04934581 0.49083024 -1.581259e+20
-0.020678475 0.080520362 0.19809982 -0.99140364 -0.015833285 0.12987721 -1.5812599e+20
-0.016099818 0.08392483 0.20210312 -0.90056437 0.042558122 0.43263459 -1.581259e+20
-0.010670098 0.084449537 0.2080157 -0.61948729 0.039538234 0.78401029 -1.581259e+20
-0.0037995633 0.083871394 0.21158682 -0.23932497 0.010362885 0.97088426 -1.581259e+20
0.0030753559 0.084375665 0.21126664 0.21349649 0.027229115 0.97656429 -1.581259e+20
0.01041639 0.084468022 0.20780858 0.6294626 0.042113639 0.77588868 -1.581259e+20
0.015672125 0.083671577 0.20181561 0.91205353 0.042808998 0.40783054 -1.581259e+20
-0.015155405 0.096715435 0.20117247 -0.8837657 0.32968646 0.33206204 -1.5812596e+20
-0.010262009 0.099629179 0.20414913 -0.60016418 0.59902591 0.53006697 -1.581259e+20
-0.0036205461 0.10278838 0.20519027 -0.37485752 0.57829678 0.72460657 -1.581259e+20
0.0030525685 0.10240205 0.20540987 0.35067117 0.5346303 0.76889539 -1.581259e+20
0.01025422 0.09951359 0.20398176 0.58152467 0.63502336 0.50850224 -1.581259e+20
0.015316767 0.096533552 0.20097859 0.87509054 0.3323299 0.35181436 -1.5812596e+20
-0.0028083001 0.11482184 0.19957443 -0.42915541 0.83382291 0.34722453 -1.5812596e+20
0.0019110551 0.11452428 0.19997761 0.37022704 0.78933829 0.48977241 -1.5812596e+20
