# .PCD v0.7 - Point Cloud Data file format
VERSION 0.7
FIELDS x y z normal_x normal_y normal_z curvature
SIZE 4 4 4 4 4 4 4
TYPE F F F F F F F
COUNT 1 1 1 1 1 1 1
WIDTH 512
HEIGHT 1
VIEWPOINT 0 0 0 1 0 0 0
POINTS 512
DATA ascii
-0.010952532 -0.0036350191 -0.00013464689 -0.08470697 -0.046803426 -0.99530607 -1.0843675e+26
-0.0087251365 -0.0016668936 -0.00034841397 -0.077557534 -0.050984599 -0.99568337 -1.0843675e+26
-0.0022092536 -0.0047001666 -0.00028981888 -0.038405281 -0.067266643 -0.99699563 -1.0843675e+26
0.0023626089 -0.0045945602 -0.00045097194 -0.0047206609 -0.07203462 -0.99739099 -1.0843675e+26
0.0071680634 -0.0057507372 -0.00034588575 0.02566123 -0.070864514 -0.99715585 -1.0843675e+26
0.011639476 -0.0031714633 -0.00028663277 0.066486567 -0.062760949 -0.99581152 -1.0843675e+26
0.015327364 -0.0044341087 -0.00031557679 0.090574399 -0.050045379 -0.99463147 -1.0843675e+26
-0.012901777 0.0074826418 -0.00021896363 -0.10585074 -0.0060801604 -0.99436343 -1.0843675e+26
-0.0076625203 0.0069888546 -0.00033677855 -0.099771284 -0.01295663 -0.9949261 -1.0843675e+26
-0.0023436029 0.0076740049 -0.00056022144 -0.053248398 -0.0044229547 -0.99857146 -1.0843675e+26
0.0029130804 0.0068011759 -0.00053725741 -0.00023504086 -0.017559294 -0.9998458 -1.0843675e+26
0.0073497645 0.0075590289 -0.00050089293 0.0122266 -0.017804014 -0.99976671 -1.0843675e+26
0.011649975 0.007345051 -0.00052268617 0.091521353 -0.015952677 -0.99567538 -1.0843675e+26
0.01677732 0.0067144996 -0.00034373006 0.11713614 -0.010987442 -0.99305511 -1.0843675e+26
0.02079007 0.0069725513 -0.00027772784 0.12101261 -0.011467661 -0.99258471 -1.0843675e+26
-0.011510223 0.019119836 -0.00030310452 -0.088944107 0.037348919 -0.99533617 -1.0843675e+26
-0.0070270505 0.017733337 -0.00031883671 -0.077087834 0.045352533 -0.9959923 -1.0843675e+26
-0.0025758902 0.019129023 -0.00044518008 -0.051425964 0.057208639 -0.99703687 -1.0843675e+26
0.0025934693 0.018898876 -0.00046135142 -0.0042310613 0.06287802 -0.9980123 -1.0843675e+26
0.0072535733 0.018939886 -0.00044450874 0.024337607 0.066226885 -0.99750775 -1.0843675e+26
0.012682865 0.019237742 -0.00040055066 0.072388373 0.05430821 -0.99589682 -1.0843675e+26
0.017122939 0.017104521 -0.00033599138 0.097110279 0.040555753 -0.99444699 -1.0843675e+26
0.021280944 0.015984595 -0.00023490191 0.11397084 0.021771433 -0.99324554 -1.0843675e+26
-0.0068300217 0.029820174 -0.00021548569 -0.057588447 0.054042384 -0.9968766 -1.0843675e+26
-0.001421541 0.030027987 -0.00013053417 -0.024890956 0.063533612 -0.99766922 -1.0843675e+26
0.0025699139 0.032257617 -0.00039203465 4.2993903e-05 0.065877959 -0.99782765 -1.0843675e+26
0.0072579011 0.029395618 -0.00031430274 0.018207639 0.065475769 -0.99768806 -1.0843675e+26
-0.010940579 -0.015466508 0.0090838037 -0.79656839 -0.59975302 -0.075993977 -1.0843675e+26
-0.0073632067 -0.017555958 0.0082613099 -0.64341187 -0.70404476 -0.30056968 -1.0843702e+26
-0.0026263399 -0.020069743 0.007395884 -0.37609479 -0.78698665 -0.48908567 -1.0843702e+26
0.0024712647 -0.020583145 0.006565372 -0.032460894 -0.78224301 -0.62212712 -1.0843705e+26
0.0075369151 -0.020413354 0.0072412854 0.30760661 -0.81072116 -0.49810567 -1.0843701e+26
0.012426177 -0.018411916 0.0081499759 0.62686908 -0.72221124 -0.2923114 -1.0843702e+26
0.016343975 -0.01570056 0.0093417438 0.79952234 -0.59494144 -0.082514726 -1.0843679e+26
-0.016391229 -0.0041477643 0.0078629311 -0.94408971 -0.31280357 -0.10415668 -1.0843706e+26
-0.012694506 -0.0084990887 0.0066829342 -0.78047252 -0.40669712 -0.47482631 -1.0843714e+26
-0.0074423687 -0.0070577487 0.001463386 -0.070241563 -0.064344488 -0.99545258 -1.0843681e+26
-0.0025906346 -0.007221296 0.0014430834 -0.035513274 -0.067659132 -0.99707621 -1.0843678e+26
0.0024216194 -0.0070614642 0.0012853424 -0.0059554069 -0.071412005 -0.99742907 -1.0843682e+26
0.0074117761 -0.0070650899 0.0012710936 0.026115105 -0.07140433 -0.99710554 -1.0843675e+26
0.012212461 -0.0067633991 0.0014716187 0.061605617 -0.063379079 -0.99608624 -1.0843686e+26
0.017583633 -0.0087451395 0.0053681401 0.59440374 -0.34599137 -0.72592986 -1.0843705e+26
0.021673895 -0.0052617225 0.0080431877 0.93340838 -0.33384842 -0.13150685 -1.0843715e+26
0.024797479 -0.00052003068 0.0086800558 0.96681297 -0.24156855 0.083170474 -1.0843675e+26
-0.020341728 0.0085370382 0.0083497437 -0.99554884 -0.088341266 0.03283944 -1.0843675e+26
-0.017704265 0.0065719518 0.0072526806 -0.94241071 -0.12872228 -0.3086949 -1.0843718e+26
-0.012238634 0.0068627805 0.0015358272 -0.10491466 -0.010350698 -0.99442732 -1.0843687e+26
-0.0072015421 0.0066623357 0.0010640795 -0.097287484 -0.015033194 -0.99514276 -1.0843675e+26
-0.0026245306 0.0062944987 0.0009606363 -0.057329442 -0.028059764 -0.99796087 -1.0843675e+26
0.0022879108 0.0070539359 0.00084863114 -0.0039524157 -0.020096609 -0.99979025 -1.0843675e+26
0.0074708555 0.0068212962 0.0009085387 0.018001942 -0.026464241 -0.9994877 -1.0843675e+26
0.01258221 0.0064374618 0.0010255257 0.096128106 -0.022018226 -0.99512541 -1.0843676e+26
0.017613046 0.006947672 0.0013828673 0.11555626 -0.013391696 -0.99321073 -1.0843679e+26
0.022912852 0.0054921512 0.0067379442 0.84479332 -0.1474202 -0.51438469 -1.084371e+26
0.02549752 0.0083819088 0.0082291206 0.99151981 -0.10376006 -0.078245111 -1.0843706e+26
-0.020570554 0.019714298 0.0094029699 -0.99695927 0.060198426 -0.04948071 -1.0843675e+26
-0.017879842 0.020307453 0.0070698364 -0.92321378 0.091383606 -0.37326309 -1.0843717e+26
-0.012396053 0.020481601 0.0016135066 -0.088508315 0.033828136 -0.9955008 -1.0843679e+26
-0.0076070465 0.02064609 0.0013294745 -0.071586914 0.046935074 -0.99632943 -1.084368e+26
-0.0025541398 0.020646365 0.0011721707 -0.045167617 0.059599195 -0.99720001 -1.0843675e+26
0.0023886985 0.020568203 0.0009799822 -0.0052704555 0.06400793 -0.99793547 -1.0843675e+26
0.0072504566 0.020523418 0.001094658 0.024956504 0.065862507 -0.99751657 -1.0843675e+26
0.012033965 0.020355707 0.0012827622 0.064560987 0.056801435 -0.99629587 -1.0843678e+26
0.017248528 0.020508751 0.0015511054 0.093652427 0.041996896 -0.99471885 -1.0843685e+26
0.022833839 0.020569919 0.0054413625 0.7412647 0.095635265 -0.66436481 -1.0843705e+26
0.025609763 0.020131184 0.0092646917 0.99430162 0.067100234 -0.082836084 -1.084371e+26
-0.020002715 0.028765908 0.012676446 -0.97684395 0.21101904 -0.03531146 -1.0843675e+26
-0.016792985 0.033029065 0.0093866335 -0.93511409 0.28511459 -0.21040744 -1.0843715e+26
-0.012804729 0.035308324 0.0044703451 -0.50089914 0.28200102 -0.81827587 -1.0843697e+26
-0.0074937749 0.034071192 0.002102094 -0.10884172 0.11813268 -0.98701477 -1.0843689e+26
-0.0025427344 0.033656474 0.0017870537 -0.028211549 0.070206106 -0.99713349 -1.0843681e+26
0.0024217777 0.033666614 0.0016689083 -0.0026258542 0.065818757 -0.99782813 -1.0843689e+26
0.0073460974 0.034338433 0.0016868549 0.021558829 0.070370384 -0.99728793 -1.0843676e+26
0.012173802 0.03387665 0.0020075014 0.081703261 0.11654127 -0.98981953 -1.0843689e+26
0.017291764 0.034392964 0.0029694564 0.29779768 0.2111688 -0.93098032 -1.0843692e+26
0.022324758 0.034012698 0.0088685229 0.91739094 0.29941744 -0.26218912 -1.0843717e+26
0.025084456 0.029655538 0.011825689 0.97373331 0.22144477 -0.0529688 -1.0843675e+26
-0.015551052 0.042502362 0.010893048 -0.91644675 0.39196238 -0.080566101 -1.0843675e+26
-0.012064909 0.045021068 0.010420499 -0.81839627 0.50368518 -0.2766383 -1.0843704e+26
-0.0075240531 0.048718303 0.008044417 -0.56186599 0.60433006 -0.5648821 -1.0843708e+26
-0.0026489992 0.048391126 0.0052017695 -0.21120572 0.45417669 -0.8655147 -1.0843692e+26
0.0022664629 0.047499649 0.0039776503 -0.014363349 0.2920109 -0.95630717 -1.084369e+26
0.0074265031 0.048099324 0.0045045149 0.12242881 0.36648604 -0.92233354 -1.0843691e+26
0.012302806 0.049023081 0.007353907 0.45625037 0.60101265 -0.65621585 -1.0843705e+26
0.017104881 0.046614602 0.0099612754 0.77995133 0.54190791 -0.31306824 -1.0843705e+26
0.020491799 0.042964224 0.011181863 0.90850478 0.40064827 -0.1187433 -1.0843675e+26
-0.0062938333 0.054964211 0.013884194 -0.58828664 0.78331685 -0.2008322 -1.0843675e+26
-0.0021688598 0.055626053 0.011467495 -0.33199713 0.8965475 -0.29322439 -1.0843675e+26
0.0026008138 0.056449816 0.010897012 -0.0076041347 0.95110196 -0.30878344 -1.0843679e+26
0.007502093 0.055915497 0.011763385 0.29554385 0.92431587 -0.24144165 -1.0843675e+26
0.010980587 0.054934908 0.013268528 0.59585029 0.77790099 -0.19958065 -1.0843675e+26
-0.011078433 -0.015499757 0.02436463 -0.82092851 -0.56887788 0.049540695 -1.0843675e+26
-0.0074564042 -0.01786579 0.024734531 -0.7084952 -0.70434231 0.044004802 -1.0843702e+26
-0.0026373561 -0.021414932 0.024394484 -0.44420964 -0.89537293 0.031386569 -1.0843695e+26
0.0025236036 -0.022784363 0.024558704 -0.03516876 -0.99891526 0.030520294 -1.0843691e+26
0.0077043269 -0.021866595 0.024402974 0.39872077 -0.91646516 0.033367049 -1.0843692e+26
0.012450793 -0.018832829 0.024654208 0.67746478 -0.73430359 0.042890597 -1.0843697e+26
0.016183203 -0.015653506 0.024276536 0.82197529 -0.56817055 0.039226547 -1.0843684e+26
-0.016202075 -0.0038977943 0.023795182 -0.95181346 -0.30159283 0.055613417 -1.0843704e+26
-0.012818683 -0.0095028672 0.024486786 -0.89884156 -0.43460983 0.056552097 -1.0843707e+26
0.018291736 -0.010657485 0.024455767 0.88468337 -0.46335447 0.051361486 -1.0843693e+26
0.021584606 -0.0048098955 0.024119418 0.94530457 -0.32164565 0.054252241 -1.0843712e+26
-0.020243865 0.0091918577 0.023213329 -0.99465996 -0.097070746 0.035053607 -1.0843675e+26
-0.017702883 0.006311194 0.02477851 -0.98610449 -0.15013185 0.071121901 -1.0843717e+26
0.023369953 0.0050773318 0.024982629 0.98371226 -0.16709591 0.066251449 -1.0843706e+26
0.02534713 0.0087413006 0.023610098 0.99262869 -0.11322208 0.043231942 -1.0843698e+26
-0.020507928 0.020020818 0.024293143 -0.99855709 0.01827802 0.050493032 -1.0843675e+26
-0.018336972 0.020345012 0.02440059 -0.99766248 0.02746984 0.06256894 -1.0843715e+26
0.023547251 0.020213978 0.0253527 0.99674177 0.026806951 0.076073639 -1.0843685e+26
0.025653528 0.02012719 0.024451012 0.99863744 0.02600825 0.045241691 -1.0843713e+26
-0.020101108 0.029402165 0.023856841 -0.98786283 0.15496945 0.010561326 -1.0843675e+26
-0.017096946 0.034137253 0.024564186 -0.97084737 0.2361874 0.040877271 -1.0843717e+26
-0.014304477 0.039506752 0.025411509 -0.92087805 0.38193557 0.078159302 -1.0843675e+26
0.019506201 0.039715677 0.025641233 0.92182744 0.36932957 0.11760036 -1.0843675e+26
0.022918815 0.034795843 0.024374167 0.970622 0.23788166 0.03612693 -1.0843716e+26
0.025153037 0.030355612 0.024015222 0.98516226 0.17072903 0.017516784 -1.0843675e+26
-0.01578379 0.043212783 0.025208408 -0.92649454 0.37552303 0.024294931 -1.0843675e+26
-0.012494316 0.04700014 0.024657613 -0.87492871 0.48414257 0.010279679 -1.0843714e+26
-0.0083323885 0.052458409 0.023923377 -0.76962322 0.63772863 -0.031340223 -1.0843685e+26
-0.0044673071 0.053899527 0.01763358 -0.57726038 0.79003513 -0.20643422 -1.0843675e+26
0.013499863 0.052969839 0.022073852 0.69862908 0.71150321 -0.075370148 -1.0843675e+26
0.017372677 0.049173869 0.024552478 0.84798086 0.53002387 0.0017648909 -1.0843712e+26
0.020927792 0.044007048 0.024796767 0.92225671 0.3860051 0.021035777 -1.0843696e+26
-0.010451685 0.055070836 0.02823768 -0.80946559 0.55250889 0.19874464 -1.0843675e+26
-0.0066866218 0.056060802 0.025741527 -0.63140166 0.77545422 0.0016329191 -1.0843679e+26
-0.0026274188 0.05809959 0.024668392 -0.40564814 0.91334802 -0.035284922 -1.08437e+26
0.0023875842 0.059563752 0.024636725 -0.052398957 0.99595213 -0.073033065 -1.08437e+26
0.0074647921 0.058708303 0.024608657 0.33778566 0.93982393 -0.051302217 -1.0843699e+26
0.011978121 0.0564497 0.025336038 0.61357486 0.78963023 -0.0031793274 -1.0843694e+26
0.015362372 0.055011574 0.027321793 0.79822379 0.59313476 0.10502356 -1.0843675e+26
-0.010219996 -0.015514776 0.035777535 -0.7868616 -0.51562446 0.33908749 -1.0843675e+26
-0.0069001839 -0.016598709 0.03604389 -0.68636316 -0.57064921 0.45084932 -1.0843675e+26
-0.0020718148 -0.018155366 0.0387212 -0.44932824 -0.75673652 0.47482005 -1.0843681e+26
0.0025600255 -0.018472437 0.040000238 0.030764015 -0.87618417 0.48099363 -1.0843682e+26
0.0072374567 -0.018765373 0.038166784 0.42978716 -0.70100689 0.56909776 -1.0843676e+26
0.012162039 -0.016952997 0.036409244 0.64314681 -0.55971366 0.52257317 -1.0843675e+26
0.015833339 -0.015251176 0.034728963 0.79773796 -0.53806955 0.27220467 -1.0843675e+26
-0.015797378 -0.0033797659 0.03451008 -0.89921367 -0.2588819 0.35269669 -1.0843675e+26
-0.012107807 -0.0063366978 0.036197197 -0.78251606 -0.2899344 0.55100513 -1.0843689e+26
-0.0074326666 -0.0066288938 0.042604849 -0.91364813 -0.29314905 0.28162172 -1.0843706e+26
-0.0031200065 -0.011435121 0.044143017 -0.74577063 -0.66271389 0.068091162 -1.0843675e+26
0.002450824 -0.013225933 0.045262493 0.14189558 -0.98970813 0.018531905 -1.0843675e+26
0.0079790112 -0.010400678 0.044587553 0.79919106 -0.60063058 0.023161707 -1.0843675e+26
0.012044505 -0.0063223131 0.043066557 0.89018703 -0.23829269 0.38830873 -1.0843697e+26
0.017225336 -0.0073699709 0.036924295 0.68583626 -0.2686002 0.67637461 -1.084369e+26
0.021016326 -0.0035901945 0.035127319 0.86279702 -0.26189134 0.43242833 -1.0843675e+26
-0.019888192 0.011616856 0.0338943 -0.97478068 -0.066944815 0.21288753 -1.0843675e+26
-0.016648816 0.0073737693 0.035321459 -0.87477845 -0.11362465 0.47101182 -1.084368e+26
-0.012174278 0.006461319 0.038388878 -0.59313214 -0.063608326 0.80258852 -1.0843682e+26
-0.0075139883 0.0063355542 0.043803841 -0.87671846 0.15463722 0.4554691 -1.0843696e+26
-0.0030133943 0.010959953 0.046341743 -0.43736431 0.59419972 0.67501038 -1.0843675e+26
0.0022404238 0.012119008 0.047140256 0.01578219 0.72974515 0.68353701 -1.0843675e+26
0.0078990236 0.010033068 0.046444777 0.58004284 0.54073316 0.60922736 -1.0843675e+26
0.012214174 0.0062647024 0.043975577 0.80328798 0.13558701 0.57995218 -1.0843695e+26
0.017248282 0.0070653409 0.039612569 0.50657123 -0.050718755 0.86070502 -1.084368e+26
0.022087518 0.006746952 0.035947222 0.78488803 -0.11403595 0.60905391 -1.0843693e+26
0.024985408 0.010486439 0.033807855 0.97679615 -0.066396095 0.20361936 -1.0843675e+26
-0.020246744 0.018127644 0.033374894 -0.97429407 -0.013172187 0.22489469 -1.0843675e+26
-0.01707506 0.020339128 0.035445083 -0.8415904 0.034494914 0.53901362 -1.0843683e+26
-0.012261039 0.020273691 0.038697824 -0.52357113 0.036223795 0.85121155 -1.084368e+26
-0.0072994786 0.020614909 0.041565351 -0.40717208 0.099067442 0.90796286 -1.0843678e+26
-0.0021092913 0.020273935 0.04335754 -0.13478577 0.18350378 0.97373462 -1.0843675e+26
0.0027303158 0.020281501 0.043901991 0.027279941 0.22876009 0.97310054 -1.0843675e+26
0.0075009596 0.020761713 0.043308679 0.21139243 0.1582558 0.96450424 -1.0843675e+26
0.012388446 0.020322608 0.0418838 0.38471055 0.079018325 0.91964877 -1.0843677e+26
0.017535424 0.020500777 0.03950515 0.46233574 0.034990009 0.88601434 -1.0843675e+26
0.022260576 0.020516682 0.036509141 0.69300926 0.028322767 0.72037202 -1.0843689e+26
0.025125224 0.019853007 0.034434251 0.9467541 0.025095528 0.32097811 -1.0843675e+26
-0.016417574 0.032443844 0.034897245 -0.86503381 0.19674282 0.46152878 -1.0843675e+26
-0.012404095 0.033905786 0.037219543 -0.58482087 0.16130218 0.79496294 -1.0843689e+26
-0.0074928124 0.034145433 0.039967578 -0.34020671 0.12333734 0.93222708 -1.0843681e+26
-0.0025745213 0.034144294 0.041377526 -0.1515718 0.13455923 0.97924453 -1.0843676e+26
0.0023667293 0.03416035 0.041992016 0.0062356391 0.13718864 0.99052531 -1.0843675e+26
0.0072440207 0.034257468 0.041422512 0.15800397 0.12881038 0.97900081 -1.0843675e+26
0.012164143 0.033426672 0.040415816 0.29025358 0.10449166 0.95122778 -1.084368e+26
0.01728479 0.034075696 0.03849145 0.48943409 0.13311364 0.86182076 -1.0843685e+26
0.02186597 0.033643838 0.035595909 0.7972399 0.19450569 0.57146841 -1.0843687e+26
0.024817718 0.028963774 0.033240508 0.95702809 0.1445899 0.25137812 -1.0843675e+26
-0.015097164 0.042262323 0.034769744 -0.88522995 0.35112253 0.30509183 -1.0843675e+26
-0.01192631 0.04453478 0.035176694 -0.74405074 0.36303946 0.56088406 -1.0843675e+26
-0.0074016945 0.047955759 0.036805108 -0.54719019 0.41258276 0.72825706 -1.0843691e+26
-0.0026360948 0.048299737 0.038841218 -0.24537851 0.31733006 0.91601914 -1.0843683e+26
0.002475529 0.047536839 0.039762203 0.0029230756 0.25706938 0.96638858 -1.0843681e+26
0.0073104682 0.048167255 0.039287988 0.18530455 0.2781148 0.94250429 -1.0843682e+26
0.012296697 0.04810705 0.037591934 0.45097953 0.36898863 0.8126899 -1.0843689e+26
0.016853752 0.045907795 0.035826012 0.6724093 0.37701187 0.63696766 -1.0843681e+26
0.020473436 0.043028872 0.034309018 0.86270666 0.34368318 0.37097031 -1.0843675e+26
-0.0058999262 0.055451799 0.034996662 -0.54074514 0.6746465 0.50244087 -1.0843675e+26
-0.0019833625 0.056281187 0.035209447 -0.32648391 0.75116616 0.57372254 -1.0843675e+26
0.0027302441 0.05718711 0.035580765 -0.0058066277 0.76436067 0.64476269 -1.0843675e+26
0.007343933 0.056710433 0.03509254 0.28663081 0.75509298 0.58964169 -1.0843675e+26
0.011279994 0.055622604 0.034232721 0.56856078 0.711932 0.41217899 -1.0843675e+26
-0.00616368 -0.015103825 0.059952658 -0.8310861 -0.54211581 -0.12412231 -1.0843675e+26
-0.0023310536 -0.016498094 0.058104463 -0.55226099 -0.7976383 -0.24244794 -1.0843691e+26
0.0027060439 -0.017264716 0.057116512 0.13337928 -0.93950373 -0.31550381 -1.084369e+26
0.0074054594 -0.016087834 0.058743659 0.67260689 -0.71062088 -0.2064411 -1.0843677e+26
0.010343459 -0.015008027 0.061560247 0.89115751 -0.44750702 -0.074671015 -1.0843675e+26
-0.01007523 -0.0037937707 0.056746945 -0.99969888 0.02449218 -0.0015144683 -1.0843675e+26
-0.0073584337 -0.0068346588 0.057407793 -0.99023104 -0.13319616 -0.041245811 -1.0843717e+26
-0.0038518691 -0.012017147 0.052613974 -0.74909383 -0.62594557 -0.21691176 -1.0843675e+26
0.0048607588 -0.013106426 0.049736694 0.46101129 -0.84692061 -0.26494163 -1.0843675e+26
0.0086600296 -0.0109625 0.054661814 0.85277486 -0.49715829 -0.16002707 -1.0843675e+26
0.011771113 -0.0064032832 0.057456404 0.99432987 -0.101761 -0.030867338 -1.0843715e+26
-0.0066698152 0.003259158 0.056943066 -0.89982134 0.43413472 0.042995192 -1.0843701e+26
-0.0026278866 0.0081377747 0.057159852 -0.57578152 0.81732249 0.021439988 -1.0843695e+26
0.0024816259 0.010094939 0.05690784 0.066789128 0.99747974 0.023944858 -1.0843685e+26
0.0076915291 0.0072263414 0.05721774 0.68134069 0.73134816 0.030077089 -1.0843697e+26
0.011350533 0.0028134543 0.057173122 0.91748899 0.39632985 0.033712551 -1.0843693e+26
-0.0061277132 -0.015991684 0.073831089 -0.89522016 -0.44562176 0.0014355467 -1.0843675e+26
-0.0026817273 -0.018608747 0.073301375 -0.70285755 -0.71034926 -0.037353192 -1.0843699e+26
0.0027870843 -0.020563524 0.073727004 0.2148543 -0.97458386 -0.063435093 -1.084368e+26
0.0076058046 -0.017745042 0.073513366 0.79199106 -0.61013204 -0.022116952 -1.0843698e+26
0.010657106 -0.015284259 0.073586524 0.91239357 -0.40931147 0.0014804639 -1.0843675e+26
-0.010054207 -0.0045898058 0.072900921 -0.9999392 -0.010498662 -0.0033735463 -1.0843675e+26
-0.0076018726 -0.0070337518 0.073419295 -0.99600106 -0.089290418 0.0030122923 -1.0843717e+26
-0.0046452484 -0.013404052 0.076371156 -0.91997731 -0.39141658 0.020854199 -1.0843675e+26
0.0094671911 -0.010150914 0.07342831 0.97251356 -0.23269854 0.0082946159 -1.0843675e+26
0.011826403 -0.0068991208 0.073354304 0.99668789 -0.081289701 0.0022979151 -1.0843717e+26
-0.0068983142 0.0046625901 0.074391991 -0.93817741 0.33553463 -0.085086212 -1.084371e+26
-0.0028534764 0.010442793 0.072819844 -0.64523381 0.73150849 -0.22038308 -1.08437e+26
0.0027838491 0.01203045 0.070103645 0.12911965 0.94852757 -0.28917748 -1.0843675e+26
0.0078781359 0.0092278561 0.073302917 0.76467037 0.61856961 -0.18069573 -1.0843705e+26
0.011385244 0.0039330297 0.074132331 0.95159602 0.29906657 -0.070880838 -1.0843705e+26
-0.0017259405 0.014899114 0.078839198 -0.46924296 0.82526863 -0.31423357 -1.0843675e+26
0.0023682213 0.01500673 0.077791363 0.055816185 0.93494356 -0.35037857 -1.0843675e+26
0.0060652159 0.014905283 0.079205289 0.58007675 0.75640774 -0.30225524 -1.0843675e+26
-0.0065659373 -0.056758482 0.096965708 -0.64626485 0.028909929 -0.76256543 -1.0843675e+26
-0.0022993621 -0.057240374 0.095750526 -0.27717358 -0.34414199 -0.89707363 -1.0843675e+26
0.002532661 -0.057693381 0.095583558 0.022152483 -0.48569235 -0.87384903 -1.0843675e+26
0.0072238897 -0.057026457 0.095957503 0.45516068 -0.22046301 -0.86268467 -1.0843675e+26
0.011071063 -0.055955868 0.097248174 0.758241 0.072193116 -0.64796501 -1.0843675e+26
-0.0061705601 -0.048076946 0.096816793 -0.59341645 0.10699876 -0.79775196 -1.0843675e+26
-0.0022092888 -0.047883119 0.095805757 -0.30765188 0.13422522 -0.94198406 -1.0843678e+26
0.0026465086 -0.047641113 0.095441006 0.028235778 0.14420849 -0.98914438 -1.084368e+26
0.0071663768 -0.048138283 0.096243709 0.45088133 0.12014634 -0.88446081 -1.0843675e+26
0.010584104 -0.050662369 0.09747082 0.74776828 0.075803898 -0.65961844 -1.0843675e+26
-0.0054288008 -0.038705364 0.09736377 -0.53367478 0.11479061 -0.83786297 -1.0843675e+26
-0.0021107236 -0.03464416 0.096890412 -0.22965863 0.13858192 -0.96335453 -1.0843675e+26
0.0026604743 -0.035480097 0.096611217 0.042010814 0.1440673 -0.98867571 -1.0843675e+26
0.0065911505 -0.035310935 0.096828975 0.27164605 0.13438809 -0.95296818 -1.0843675e+26
0.0098342616 -0.038229287 0.097863555 0.53378057 0.11105064 -0.83829951 -1.0843675e+26
-0.006173946 -0.015600448 0.088815033 -0.89757597 -0.43908998 0.039465498 -1.0843675e+26
-0.0026123617 -0.018488882 0.08941865 -0.73820066 -0.67420346 0.022572791 -1.0843694e+26
0.0027556419 -0.02063795 0.090315014 0.22531885 -0.97393185 0.026234496 -1.0843675e+26
0.0074591436 -0.017515365 0.089303754 0.78008091 -0.62181526 0.069423579 -1.0843696e+26
0.010557131 -0.015161341 0.088787459 0.91491377 -0.40246764 0.030864498 -1.0843675e+26
-0.010058868 -0.003785637 0.08970122 -0.99999964 -0.00055803428 0.00063028932 -1.0843675e+26
-0.0074901818 -0.0070469584 0.089803152 -0.99130875 -0.13098483 0.012247464 -1.0843717e+26
-0.0044093607 -0.012883483 0.092732251 -0.91491789 -0.3987157 0.062857836 -1.0843675e+26
0.009222826 -0.011015028 0.090182178 0.95826304 -0.28454569 0.027670804 -1.0843675e+26
0.011777651 -0.0066286321 0.08956179 0.99405682 -0.10857475 0.0079154875 -1.0843716e+26
-0.0099180043 0.002277106 0.08870852 -0.97608423 0.21239254 0.046356995 -1.0843675e+26
-0.0070399828 0.0051723942 0.089535631 -0.95421803 0.29829088 0.022147743 -1.0843713e+26
-0.0033432771 0.011258061 0.09082 -0.85215539 0.52275282 0.023679791 -1.0843681e+26
0.0038082013 0.013245563 0.092800431 0.2712228 0.50324601 -0.82047641 -1.0843675e+26
0.0082020639 0.010111305 0.090497404 0.90022117 0.43382305 0.03740716 -1.0843698e+26
0.011402163 0.0047619641 0.089408226 0.96034586 0.27763513 0.02558234 -1.0843708e+26
-0.0051818192 0.014033794 0.083522856 -0.82533365 0.56464541 0 -1.0843675e+26
-0.0020557859 0.015442783 0.089828566 -0.53150547 0.8459816 0.0426264 -1.0843675e+26
0.0025259175 0.015776109 0.089740418 0.064129911 0.99417782 0.086589701 -1.0843691e+26
0.0066012838 0.015316932 0.090200506 0.66416633 0.73784405 0.12028813 -1.0843675e+26
-0.0058515291 -0.068439752 0.11345097 -0.23275919 -0.90976685 -0.34372577 -1.0843675e+26
-0.0022011115 -0.06851732 0.11260061 -0.13123076 -0.90659064 -0.40108839 -1.0843675e+26
0.0021967962 -0.068706177 0.11252455 0.03235874 -0.91898704 -0.39295763 -1.0843675e+26
0.0062010717 -0.068537384 0.11307561 0.17016482 -0.91094762 -0.37579024 -1.0843675e+26
-0.014830654 -0.059449352 0.11359625 -0.9956817 -0.022335492 -0.090106271 -1.0843675e+26
-0.012223509 -0.060116827 0.10894467 -0.93102306 -0.16841489 -0.3237786 -1.0843711e+26
-0.0075206966 -0.062254559 0.1050104 -0.50117737 -0.65649837 -0.56376517 -1.0843704e+26
-0.002429435 -0.063935697 0.10469998 -0.12340722 -0.84164792 -0.52573711 -1.0843694e+26
0.0024213465 -0.064275578 0.10477447 0.01490342 -0.85094494 -0.52504331 -1.0843695e+26
0.0074972128 -0.063734405 0.10525586 0.23461464 -0.81908017 -0.52351087 -1.0843699e+26
0.012497779 -0.061454836 0.10599206 0.67777085 -0.51706582 -0.52275187 -1.0843707e+26
0.01624481 -0.05933211 0.10989552 0.96165675 -0.076625079 -0.26333433 -1.0843694e+26
-0.014826703 -0.048572887 0.11318381 -0.98576868 -0.02183247 -0.16668379 -1.0843675e+26
-0.011715505 -0.048129309 0.10619939 -0.91676301 0.027381657 -0.39849183 -1.0843683e+26
-0.0078563001 -0.047212679 0.10078745 -0.76737714 0.076223403 -0.63664925 -1.0843694e+26
-0.0031399725 -0.044843785 0.0983852 -0.44622168 0.12364721 -0.88633943 -1.0843675e+26
0.0026535825 -0.044160947 0.098175697 0.020294718 0.14426924 -0.98933035 -1.0843675e+26
0.0081126103 -0.047213584 0.099226467 0.60282129 0.10094918 -0.79146427 -1.0843675e+26
0.012596569 -0.047467735 0.10240697 0.82444787 0.054280587 -0.56332874 -1.0843704e+26
0.016098157 -0.047538616 0.10829317 0.93950754 0.0079691447 -0.34243551 -1.0843676e+26
-0.015058185 -0.033603374 0.11333115 -0.96245325 0.00092272076 -0.27144596 -1.0843675e+26
-0.01210913 -0.034199219 0.10827887 -0.90580422 0.03187114 -0.42249605 -1.0843708e+26
-0.0076341853 -0.033874065 0.10195807 -0.71294767 0.087025017 -0.69579619 -1.0843696e+26
-0.0030382089 -0.033850625 0.099151619 -0.4429526 0.12462731 -0.88784069 -1.0843675e+26
0.002540604 -0.033456936 0.099048592 0.0068116994 0.14429346 -0.98951149 -1.0843675e+26
0.0080169002 -0.033746205 0.1000372 0.52793181 0.11171629 -0.84190702 -1.0843675e+26
0.012526929 -0.034145672 0.10402356 0.79519331 0.062690146 -0.60310668 -1.0843699e+26
0.016412232 -0.033980574 0.11010322 0.93233848 0.012522016 -0.36137003 -1.0843701e+26
-0.015122051 -0.020398667 0.11356173 -0.96382105 0.00042150152 -0.26654994 -1.0843675e+26
-0.012058708 -0.020700745 0.10930296 -0.87656653 0.04328886 -0.47932979 -1.0843703e+26
-0.0074595525 -0.020391896 0.10300934 -0.6829108 0.079948686 -0.72611362 -1.0843689e+26
-0.00289946 -0.020128392 0.10045439 -0.55185705 -0.11230624 -0.82634199 -1.0843675e+26
0.0023768463 -0.020949258 0.10020688 0.067256033 -0.46959308 -0.88031751 -1.0843675e+26
0.007474598 -0.020309739 0.10094928 0.66019446 -0.17529429 -0.73035282 -1.0843675e+26
0.012420125 -0.020372661 0.10540827 0.77140933 0.059923768 -0.63351142 -1.0843697e+26
0.016479604 -0.020891022 0.11077973 0.90699536 0.025125908 -0.42039037 -1.0843695e+26
-0.015232608 -0.0073108734 0.11393172 -0.92298406 0.023904454 -0.38409501 -1.0843675e+26
-0.011951683 -0.0070214719 0.11007377 -0.85070848 0.052612387 -0.52299809 -1.0843697e+26
-0.0077911303 -0.0065470426 0.10299886 -0.97362196 -0.095116362 -0.20739631 -1.0843704e+26
-0.0036360808 -0.011283649 0.10234325 -0.9730345 -0.22803228 0.034715682 -1.0843675e+26
0.0015533417 -0.0070718825 0.11134233 0 0 1 -1.0843675e+26
0.0089554051 -0.01109987 0.10209846 0.94656527 -0.23515482 -0.22071806 -1.0843675e+26
0.012245838 -0.006298691 0.10425446 0.96621269 -0.059818152 -0.25070873 -1.0843711e+26
0.016511569 -0.0074841841 0.11136954 0.87487006 0.038909793 -0.48279235 -1.0843679e+26
-0.014902795 0.0047098906 0.11202905 -0.95750988 0.025039801 -0.28731146 -1.0843675e+26
-0.012261751 0.007512881 0.11029045 -0.89179331 0.0007193503 -0.45244256 -1.0843699e+26
-0.0073805577 0.0056041288 0.1037972 -0.92223865 0.27465552 -0.27210337 -1.0843701e+26
-0.003387626 0.010643088 0.10226368 -0.86082888 0.50246012 -0.080668494 -1.0843675e+26
0.0048798621 0.012309074 0.10037032 1 0 0 -1.0843675e+26
0.0081861531 0.010085915 0.10252155 0.90905714 0.38582742 -0.1573285 -1.0843675e+26
0.012002397 0.0058672912 0.10608176 0.9354704 0.23735546 -0.26183504 -1.0843709e+26
0.01659137 0.0053035608 0.11204024 0.85081375 0.058256753 -0.522228 -1.0843675e+26
-0.011901003 0.015956039 0.11017448 -0.81994212 0.44050953 -0.36557674 -1.0843675e+26
-0.0072775129 0.018828206 0.11041919 -0.49236843 0.662126 -0.56494474 -1.0843678e+26
-0.0022244505 0.018972185 0.10682964 -0.29043698 0.81263232 -0.50524753 -1.0843697e+26
0.0026808858 0.019478345 0.10664994 0.024392178 0.86674631 -0.49815252 -1.0843693e+26
0.0073061199 0.018916417 0.10754508 0.43935519 0.75802779 -0.48203835 -1.0843694e+26
0.011975923 0.018217262 0.11121614 0.60341662 0.54556584 -0.58158946 -1.0843675e+26
0.015734011 0.017000396 0.11269555 0.69366628 0.42313525 -0.58290958 -1.0843675e+26
-0.010155357 -0.068392776 0.1223303 -0.38472703 -0.92170042 0.049531605 -1.0843675e+26
-0.0066853245 -0.06864202 0.1211721 -0.27566254 -0.96110946 0.01669574 -1.0843675e+26
-0.002578109 -0.069072083 0.1219462 -0.12879884 -0.98966193 0.063088588 -1.0843689e+26
0.0024637962 -0.069204167 0.1222357 0.013506067 -0.99828273 0.057001643 -1.0843695e+26
0.0073898579 -0.068797246 0.12168834 0.19676423 -0.97930878 0.047309171 -1.0843686e+26
0.011020661 -0.068330623 0.1212538 0.26369649 -0.96460158 -0.0028196634 -1.0843675e+26
-0.014996322 -0.057903111 0.11854332 -0.9972496 -0.057988234 0.046156302 -1.0843675e+26
-0.0126305 -0.061479632 0.12218123 -0.9642337 -0.21284932 0.15795115 -1.0843719e+26
-0.0080729369 -0.066608615 0.12383091 -0.51666069 -0.83033496 0.2088199 -1.0843675e+26
-0.0032700321 -0.067539006 0.12669955 -0.14422628 -0.97366488 0.17656565 -1.0843675e+26
0.0035258532 -0.067685433 0.12876865 0.018797703 -0.98537976 0.16933195 -1.0843675e+26
0.0082317321 -0.067516364 0.12540525 0.23541054 -0.95752621 0.16650991 -1.0843675e+26
0.01296861 -0.065293178 0.12351131 0.62036401 -0.76121873 0.18893006 -1.0843699e+26
0.016497973 -0.060356401 0.1213128 0.98476219 -0.13188788 0.11335384 -1.0843717e+26
-0.015189004 -0.047816042 0.1207596 -0.99723691 -0.065686673 0.034695044 -1.0843675e+26
-0.013119101 -0.049208891 0.12386604 -0.98901683 -0.085072443 0.12086493 -1.0843684e+26
0.014166832 -0.053129405 0.12914556 0.96179396 -0.11838889 0.24685307 -1.0843675e+26
0.017300176 -0.048564859 0.12304998 0.99270564 -0.08417692 0.086311392 -1.0843692e+26
-0.015681325 -0.032788213 0.12238093 -0.9981274 -0.050628852 -0.03432779 -1.0843705e+26
-0.01371996 -0.034091897 0.12183426 -0.99815696 -0.051546331 -0.032023348 -1.08437e+26
0.017944722 -0.033733305 0.12184531 0.99766833 -0.057525598 -0.03672532 -1.0843716e+26
0.020084232 -0.031992812 0.12335363 0.99777365 -0.066460468 0.0055473503 -1.0843675e+26
-0.016110335 -0.020375799 0.12298422 -0.9960655 -0.041255612 -0.078431107 -1.0843711e+26
-0.013906321 -0.020850552 0.12075748 -0.99012488 -0.028647006 -0.13722962 -1.0843685e+26
0.018298883 -0.020546082 0.12196987 0.99366856 -0.042800266 -0.10387951 -1.0843713e+26
0.02046535 -0.0201595 0.12434237 0.99753034 -0.055741943 -0.042730711 -1.0843677e+26
-0.016314888 -0.0066683022 0.12325313 -0.98917866 -0.027814006 -0.14405483 -1.0843714e+26
-0.013723813 -0.0068722935 0.11862472 -0.96211338 8.5172505e-05 -0.27264968 -1.0843675e+26
0.018331544 -0.0070595085 0.12072668 0.97536749 -0.017554194 -0.21988672 -1.0843707e+26
0.020701109 -0.006383643 0.12422318 0.99181676 -0.038595319 -0.12169613 -1.0843695e+26
-0.016527411 0.0065960386 0.12360992 -0.97923684 0.013615157 -0.20226167 -1.0843715e+26
-0.013408404 0.0073679546 0.11780622 -0.92683125 0.04112041 -0.37321961 -1.0843675e+26
0.018179232 0.0069064475 0.12013638 0.95256519 0.027227787 -0.30311418 -1.0843707e+26
0.020971214 0.0068317414 0.12526225 0.9872365 0.0077231894 -0.15907376 -1.0843703e+26
-0.016156411 0.018204151 0.12523542 -0.93714094 0.27501953 -0.21478133 -1.0843692e+26
-0.012626897 0.020992769 0.1213774 -0.78255051 0.49842161 -0.37308258 -1.0843705e+26
-0.0077384398 0.02456701 0.11957899 -0.41830707 0.79370153 -0.44165266 -1.0843678e+26
-0.0024766347 0.02577642 0.11830591 -0.14426829 0.9200756 -0.36420813 -1.0843675e+26
0.0027355901 0.025913903 0.11792883 0.024537951 0.92923051 -0.36868468 -1.0843675e+26
0.0074567571 0.025591966 0.11851804 0.19630532 0.88794619 -0.41595152 -1.0843675e+26
0.012643425 0.02393437 0.11962349 0.48383057 0.75207448 -0.44753981 -1.0843689e+26
0.017449001 0.020135939 0.12270303 0.83292985 0.43883362 -0.33712453 -1.0843711e+26
0.020639041 0.017470112 0.12577777 0.95949358 0.20866396 -0.18929176 -1.0843675e+26
-0.011537464 0.03119017 0.12862155 -0.77023429 0.23749951 -0.59188944 -1.0843675e+26
-0.0073508853 0.033798728 0.1264368 -0.55449915 0.32977238 -0.76405549 -1.0843684e+26
-0.0023675428 0.034355588 0.1245569 -0.26376361 0.38028535 -0.88646024 -1.0843683e+26
0.0025044554 0.034423131 0.12395624 0.031616375 0.40940502 -0.91180474 -1.0843676e+26
0.0073769973 0.034098599 0.12507042 0.33448452 0.38064006 -0.86210984 -1.0843683e+26
0.012159168 0.033151396 0.12725483 0.62290013 0.31714097 -0.71513432 -1.0843682e+26
0.015948344 0.031482697 0.129151 0.78362954 0.24096033 -0.57259309 -1.0843675e+26
-0.010054648 0.041058272 0.13031685 0.00028229711 0.98951334 0.14444128 -1.0843675e+26
-0.0065389392 0.044607528 0.12928861 -0.55677837 0.46737993 -0.68669772 -1.0843675e+26
-0.0023315402 0.046413895 0.12850836 -0.28711659 0.23817261 -0.92781347 -1.0843675e+26
0.002542054 0.046182379 0.12823194 0.036767624 0.11829891 -0.99229705 -1.0843675e+26
0.0067749838 0.045708939 0.12866214 0.28200358 0.26316747 -0.92261416 -1.0843675e+26
0.011460009 0.043135975 0.1293119 0.53814995 0.63226306 -0.55734909 -1.0843675e+26
-0.0055184364 0.054756612 0.13041916 -0.60195208 0.26076478 -0.7547552 -1.0843675e+26
-0.0020861267 0.055507917 0.12975019 -0.28088635 0.28559881 -0.91626209 -1.0843675e+26
0.0022142807 0.05751235 0.12948358 0.0086145559 0.29409352 -0.95573783 -1.0843675e+26
0.0065759718 0.056220725 0.1298679 0.37842903 0.27942029 -0.88244867 -1.0843675e+26
-0.0021359315 -0.068497419 0.13153262 -0.12213293 -0.87584198 0.46688798 -1.0843675e+26
0.0024287067 -0.068408079 0.13163514 0.030923376 -0.88202614 0.47018459 -1.0843675e+26
0.0069064009 -0.068084516 0.13129734 0.22140527 -0.86054748 0.4587349 -1.0843675e+26
-0.010803982 -0.058509015 0.1326575 -0.87624419 -0.19009477 0.44278666 -1.0843675e+26
-0.0072585884 -0.060715307 0.13539381 -0.71435767 -0.35137424 0.60516864 -1.08437e+26
-0.002506427 -0.061713893 0.13787356 -0.32851231 -0.56042534 0.76026517 -1.08437e+26
0.0024224909 -0.062117577 0.13831976 0.057578009 -0.60591733 0.79344118 -1.0843702e+26
0.0073063374 -0.061716467 0.13722959 0.44275591 -0.52889276 0.72404402 -1.0843701e+26
0.012033238 -0.060197696 0.13406308 0.78935546 -0.29014009 0.54105157 -1.0843696e+26
0.015151853 -0.057177804 0.13220192 0.88905352 -0.15907837 0.42927608 -1.0843675e+26
-0.011627187 -0.047042031 0.13426554 -0.90128559 -0.14941192 0.40664527 -1.0843701e+26
-0.0075196824 -0.04723528 0.14011972 -0.81667072 -0.1894647 0.5451166 -1.0843705e+26
-0.0025443619 -0.047736038 0.14323516 -0.15114975 -0.2048226 0.96705812 -1.0843688e+26
0.0023318937 -0.047819197 0.14366563 0.01537034 -0.093553007 0.99549562 -1.0843688e+26
0.0077081462 -0.047386393 0.14277527 0.4082517 -0.17768192 0.8954103 -1.0843697e+26
0.012385238 -0.04755633 0.13792266 0.84989631 -0.17687319 0.49637905 -1.0843709e+26
0.01587473 -0.046679191 0.13369146 0.91206127 -0.14931948 0.38190046 -1.0843675e+26
-0.015216298 -0.031595509 0.13267905 -0.96116596 -0.11346915 0.25156453 -1.0843675e+26
-0.012281109 -0.033632468 0.13673949 -0.9112044 -0.14451404 0.38577488 -1.0843712e+26
-0.0077294484 -0.034363624 0.1433288 -0.7637974 -0.15758678 0.62592328 -1.0843696e+26
-0.0026736776 -0.035694327 0.14428864 -0.037352838 -0.19083211 0.98091179 -1.0843675e+26
0.0023994651 -0.036060687 0.14430393 6.0264829e-05 0.10957438 0.99397862 -1.0843675e+26
0.0075997133 -0.035503197 0.14424519 0.14891192 -0.1047059 0.98329139 -1.0843675e+26
0.012505705 -0.034168124 0.14192079 0.80587542 -0.18583918 0.56216431 -1.0843705e+26
0.016620694 -0.033135716 0.13531972 0.93013036 -0.14033817 0.33935621 -1.0843707e+26
0.019813538 -0.029228494 0.13152602 0.95837671 -0.12211519 0.25807363 -1.0843675e+26
-0.015710844 -0.019240305 0.13442999 -0.97512943 -0.10122714 0.19716902 -1.0843682e+26
-0.012597516 -0.020627316 0.14014183 -0.90911198 -0.14540637 0.39034909 -1.0843711e+26
-0.0084049376 -0.023504542 0.14505509 -0.74907398 -0.20104218 0.6312449 -1.0843675e+26
-0.0046132207 -0.025678039 0.14665252 -0.51229006 -0.24778789 0.82228953 -1.0843675e+26
0.0089018941 -0.026683778 0.14656311 0.51205355 -0.25124252 0.82138807 -1.0843675e+26
0.013174818 -0.021837881 0.14453016 0.79153144 -0.19508432 0.57915485 -1.0843675e+26
0.017193751 -0.020160288 0.13802432 0.93362355 -0.13880548 0.33027267 -1.0843714e+26
0.020383315 -0.019141002 0.13300596 0.98230833 -0.099952891 0.15836582 -1.0843675e+26
-0.016154664 -0.0063439552 0.13654272 -0.97794074 -0.098458208 0.1842223 -1.0843708e+26
-0.013238464 -0.0077589015 0.14218862 -0.92161328 -0.1385444 0.36253873 -1.0843697e+26
-0.00919348 -0.013214111 0.14655684 -0.7395345 -0.20264015 0.64189237 -1.0843675e+26
0.013860382 -0.012266748 0.14568454 0.81891495 -0.18697707 0.5426029 -1.0843675e+26
0.017791668 -0.0072457525 0.14008829 0.94520015 -0.13199015 0.29862219 -1.0843714e+26
0.020710422 -0.0059226505 0.13531858 0.98375922 -0.098259203 0.15020947 -1.0843685e+26
-0.016647037 0.0068802391 0.13769212 -0.98719084 -0.026508344 0.1573261 -1.0843716e+26
-0.014079615 0.0053524706 0.14357519 -0.93912166 -0.063345164 0.33769509 -1.0843675e+26
0.018582456 0.0062597147 0.14153451 0.96305466 -0.046094369 0.26533183 -1.0843702e+26
0.020895585 0.0071601942 0.13666624 0.99165958 -0.022447247 0.12691464 -1.0843706e+26
-0.016364845 0.019616885 0.13790226 -0.98686951 0.13462617 0.089243069 -1.0843714e+26
-0.013776993 0.021950087 0.1405703 -0.97681588 0.15246566 0.15028332 -1.0843675e+26
0.018397942 0.021048209 0.13984594 0.98053765 0.13357814 0.14388436 -1.0843709e+26
0.020813588 0.019188736 0.13675691 0.98854119 0.13454369 0.068442576 -1.0843693e+26
-0.015385093 0.030409396 0.13909626 -0.98643202 0.16416898 0.0006043071 -1.0843675e+26
-0.012851001 0.034467585 0.13855779 -0.91950881 0.39049375 -0.044923477 -1.0843716e+26
-0.0084747262 0.038345274 0.13570322 -0.13133645 0.98077852 -0.14430586 -1.0843675e+26
-0.0022002058 0.039588436 0.13594261 0.10093998 0.95713192 0.27149498 -1.0843675e+26
0.0013626124 0.039551266 0.14167404 -0.61105031 0.47596985 0.6325109 -1.0843675e+26
0.0078146709 0.039266687 0.13743232 9.9572128e-05 0.98952639 0.1443519 -1.0843675e+26
0.013337122 0.038435049 0.1361755 0.70328707 0.47571257 -0.52828473 -1.0843675e+26
0.017104238 0.033642098 0.13888274 0.95507842 0.29401669 -0.037139978 -1.0843717e+26
0.020106124 0.029657558 0.13980995 0.98872304 0.14696631 0.028769722 -1.0843675e+26
-0.011172789 0.047818925 0.14104028 -0.9964475 0.057320692 -0.061697975 -1.0843705e+26
-0.0081738103 0.048098728 0.13635743 -0.87670088 0.066415437 -0.4764289 -1.0843702e+26
-0.0027496738 0.04872315 0.13257006 -0.39336139 0.021945786 -0.91912198 -1.0843675e+26
0.0024793388 0.050042227 0.13198499 0.022535201 0.14217651 -0.98958474 -1.0843675e+26
0.0077961404 0.048168514 0.1325274 0.48508117 0.053585943 -0.8728258 -1.0843675e+26
0.012882496 0.048080578 0.13871868 0.9583953 0.071221314 -0.27641615 -1.0843713e+26
0.015668459 0.04756964 0.14131613 0.99764186 0.066794917 -0.015783099 -1.0843675e+26
-0.01059984 0.057532549 0.14201462 -0.96296024 0.26008642 -0.071151242 -1.0843675e+26
-0.0073831291 0.059551068 0.13947956 -0.7384128 0.61991918 -0.26541805 -1.0843705e+26
-0.0025155272 0.061526582 0.13770612 -0.28502411 0.8554244 -0.43244702 -1.0843703e+26
0.0025951643 0.061978169 0.13743782 0.014722546 0.87072563 -0.49154869 -1.08437e+26
0.0073613958 0.061141632 0.13791832 0.40714341 0.8153733 -0.41158304 -1.0843702e+26
0.012018683 0.05891471 0.14051472 0.81462252 0.54851997 -0.18845676 -1.0843705e+26
0.015426546 0.056859538 0.14269666 0.98528719 0.17072591 -0.0078698359 -1.0843675e+26
-0.006838575 -0.043783169 0.14719911 -0.72625506 0.1427094 0.67244905 -1.0843675e+26
-0.0022231191 -0.04438746 0.14703012 0 0.16522588 0.98625576 -1.0843675e+26
0.0033773631 -0.043626606 0.14710057 0 0.33570597 0.94196683 -1.0843675e+26
0.0079208212 -0.044758972 0.14698045 0 0.063988991 0.99795055 -1.0843675e+26
-0.0061699408 -0.029014116 0.14793564 -0.56189239 -0.24041077 0.79150462 -1.0843675e+26
-0.0023647763 -0.029549979 0.14890771 -0.35634056 -0.34629089 0.86781573 -1.0843675e+26
0.0025634053 -0.029435668 0.14961568 0.051245987 -0.32876483 0.9430204 -1.0843675e+26
0.0071793431 -0.029338514 0.14845596 0.40637684 -0.32456928 0.85411513 -1.0843675e+26
0.010416706 -0.028187552 0.14800355 0.55643547 -0.24499378 0.79395062 -1.0843675e+26
-0.010540375 -0.016392162 0.14794637 -0.74178511 -0.20231052 0.63939458 -1.0843675e+26
-0.0072577917 -0.019462356 0.14919859 -0.64600915 -0.2250955 0.72938609 -1.084368e+26
-0.0026322259 -0.020379435 0.15152998 -0.35800776 -0.26590538 0.89505571 -1.0843689e+26
0.0024905065 -0.020364989 0.1522923 0.065298408 -0.28215399 0.95714426 -1.084369e+26
0.0075209122 -0.019890914 0.15101096 0.44041309 -0.26017487 0.85927022 -1.0843688e+26
0.011684056 -0.01908312 0.14869654 0.68819314 -0.22097284 0.6910581 -1.0843675e+26
0.015546441 -0.015714183 0.14769703 0.7399686 -0.20914809 0.63929921 -1.0843675e+26
-0.01152524 -0.0054468452 0.14910464 -0.814174 -0.18212321 0.55131835 -1.0843675e+26
-0.0075281891 -0.007089701 0.1522433 -0.64569759 -0.22520995 0.72962666 -1.0843696e+26
-0.0026152781 -0.0069589885 0.155444 -0.33978623 -0.26650408 0.90195394 -1.0843684e+26
0.0023854028 -0.006751522 0.1562414 0.054383948 -0.28113323 0.95812649 -1.0843687e+26
0.0074208258 -0.0067082057 0.15497871 0.41137031 -0.26351854 0.87254375 -1.0843689e+26
0.012336739 -0.0068155606 0.15126365 0.69571459 -0.21985596 0.68384534 -1.0843698e+26
0.015916672 -0.0045394567 0.14870046 0.84544277 -0.17809498 0.50349659 -1.0843675e+26
-0.015217422 0.0085945707 0.14746097 -0.88416022 -0.039915979 0.46547535 -1.0843675e+26
-0.012055904 0.0067511336 0.15048055 -0.844365 -0.056088623 0.53282452 -1.08437e+26
-0.0075209634 0.006619961 0.1554092 -0.65717268 -0.053147718 0.7518639 -1.0843693e+26
-0.0028034514 0.0067448323 0.15830287 -0.36785251 -0.043191366 0.92888051 -1.0843686e+26
0.0024440796 0.006739194 0.15907954 0.045322482 -0.035074394 0.99835652 -1.0843692e+26
0.0076940418 0.0065677101 0.15766446 0.40052176 -0.045031428 0.91518003 -1.0843687e+26
0.012412741 0.0063871685 0.15432155 0.68281442 -0.06349431 0.72782755 -1.0843698e+26
0.016392453 0.0070181047 0.14964017 0.86052299 -0.054082781 0.50653273 -1.0843692e+26
-0.015001374 0.018501323 0.14765757 -0.89452118 0.07040821 0.44144595 -1.0843675e+26
-0.011979014 0.019733679 0.15008785 -0.79343605 0.10181462 0.60007763 -1.0843695e+26
-0.0074392087 0.020381907 0.154045 -0.55210912 0.14033447 0.82187688 -1.0843694e+26
-0.0026283201 0.020074151 0.15643501 -0.27915764 0.19777597 0.93965721 -1.0843684e+26
0.0023796682 0.020086482 0.15715964 0.032047175 0.24608703 0.96871775 -1.0843687e+26
0.0074579339 0.020498801 0.15612182 0.31017104 0.18380806 0.93274242 -1.0843689e+26
0.01231331 0.0200873 0.15320741 0.61461186 0.14293344 0.77577198 -1.0843696e+26
0.016476156 0.019412866 0.14929688 0.82511431 0.080190688 0.55924582 -1.0843685e+26
0.019975275 0.016275331 0.14718182 0.94572163 0.060653348 0.31926742 -1.0843675e+26
-0.01146794 0.032594524 0.14903176 -0.80544001 0.1816877 0.56414181 -1.0843675e+26
-0.0073321508 0.033735421 0.15202102 -0.55317754 0.25023314 0.79459298 -1.0843691e+26
-0.002587941 0.034069173 0.15426646 -0.24029416 0.23820177 0.94101995 -1.0843685e+26
0.0024532191 0.03420284 0.15464294 0.044321049 0.30818459 0.95029366 -1.0843689e+26
0.007323815 0.033892684 0.15421663 0.29967576 0.25634471 0.91895688 -1.0843685e+26
0.012288078 0.033418931 0.15118022 0.63070685 0.25391161 0.73330611 -1.0843694e+26
0.015882095 0.031807553 0.14863142 0.81551099 0.1831169 0.54900831 -1.0843675e+26
-0.010556273 0.048072495 0.14817265 -0.90523714 0.0047638933 0.42487997 -1.0843675e+26
-0.0075078635 0.048001017 0.15053606 -0.75153542 -0.025988966 0.6591807 -1.08437e+26
-0.0025982717 0.047838259 0.15402062 -0.35245207 -0.06122449 0.93382496 -1.0843687e+26
0.0024836562 0.047528129 0.15471661 0.040119451 -0.076142088 0.99628949 -1.0843689e+26
0.0076541295 0.047721125 0.15337485 0.47472796 -0.0570792 0.87827981 -1.0843686e+26
0.012026059 0.047861051 0.14970751 0.80301327 -0.020270541 0.59561628 -1.0843698e+26
0.015210611 0.049098801 0.14826772 0.90094793 -0.0025789421 0.43391934 -1.0843675e+26
-0.010339368 0.05742136 0.14807065 -0.89878601 0.1756559 0.40165743 -1.0843675e+26
-0.0071363095 0.058109015 0.14998057 -0.69876754 0.4290182 0.57242227 -1.0843679e+26
-0.0025270772 0.059622046 0.15179686 -0.31983969 0.66399455 0.67588001 -1.0843682e+26
0.0024081699 0.059893299 0.15222262 0.034417275 0.68575323 0.72701997 -1.0843692e+26
0.0073017618 0.059555348 0.15152916 0.37527892 0.63799459 0.67240518 -1.0843684e+26
0.011660371 0.058448114 0.14923066 0.73296881 0.46338862 0.49802393 -1.0843675e+26
0.015051226 0.05698796 0.1474288 0.89103967 0.20804097 0.40344417 -1.0843675e+26
