# .PCD v0.7 - Point Cloud Data file format
VERSION 0.7
FIELDS x y z normal_x normal_y normal_z curvature
SIZE 4 4 4 4 4 4 4
TYPE F F F F F F F
COUNT 1 1 1 1 1 1 1
WIDTH 493
HEIGHT 1
VIEWPOINT 0 0 0 1 0 0 0
POINTS 493
DATA ascii
-0.0034654438 -0.019161105 -0.00012138486 0 -0.38276729 -0.92384481 -1.5812599e+20
0.013009429 -0.019091547 -0.00018718839 0 -0.38276729 -0.92384481 -1.5812599e+20
-0.019145984 -0.014016712 -0.00046277343 -0.45519111 -0.053323157 -0.88879561 -1.5812599e+20
-0.015364057 -0.0087545421 -0.00073845714 -0.08855921 -0.025106121 -0.99575448 -1.5812592e+20
-0.0089521939 -0.0091090109 -0.0007736017 0 -0.039767452 -0.99920893 -1.5812594e+20
-0.0030121647 -0.0093582356 -0.00092602085 0 -0.040703703 -0.99917126 -1.5812594e+20
0.0034635293 -0.0093099726 -0.00083434355 0 -0.041925009 -0.99912083 -1.5812592e+20
0.0092826607 -0.0095835719 -0.00077190774 0 -0.042870335 -0.9990806 -1.5812594e+20
0.015396627 -0.0085409926 -0.00085174857 0 -0.028697299 -0.99958813 -1.5812594e+20
0.021278035 -0.010019016 -0.00083714398 0.0082153715 -0.049490139 -0.99874085 -1.5812594e+20
0.026080631 -0.0082108658 -0.00062498025 0.34117118 -0.017837653 -0.93983191 -1.5812597e+20
-0.019212805 0.0073623881 -0.00058854744 -0.43395653 0 -0.90093374 -1.5812599e+20
-0.015378775 0.0093965959 -0.00083918788 -0.084553786 0 -0.99641889 -1.5812592e+20
-0.0091157854 0.0094183804 -0.00077046611 0 0 -1 -1.5812594e+20
-0.003241254 0.0094481893 -0.00094231457 0 0 -1 -1.5812594e+20
0.0033823042 0.0097457776 -0.00089671323 0 0 -1 -1.5812592e+20
0.0092766602 0.01043459 -0.00090619957 0 0 -1 -1.5812594e+20
0.015337514 0.00939395 -0.00093464693 0 0 -1 -1.5812592e+20
0.021752995 0.0089368504 -0.00086249859 0.0055820304 0 -0.99998444 -1.5812594e+20
0.026186306 0.010181651 -0.00059399341 0.40066826 0 -0.91622317 -1.5812599e+20
-0.019851983 0.026450515 -0.00063112378 -0.53216261 0 -0.8466422 -1.5812599e+20
-0.015659062 0.028934198 -0.00072450429 -0.10156282 0 -0.99482912 -1.5812592e+20
-0.0096169012 0.027904142 -0.00084471348 0 0 -1 -1.5812594e+20
-0.0035862913 0.02827345 -0.00097492023 0 0 -1 -1.5812594e+20
0.0032634095 0.028677693 -0.00092021137 0 0 -1 -1.5812592e+20
0.0094905738 0.028218308 -0.00080159307 0 0 -1 -1.5812594e+20
0.015476786 0.028437885 -0.00095721084 0 0 -1 -1.5812594e+20
0.021690512 0.029263331 -0.00086499122 0.0088151218 0 -0.99996114 -1.5812594e+20
0.026160048 0.027434282 -0.00066274009 0.37246931 0 -0.9280445 -1.5812601e+20
-0.019382745 0.042775504 -0.00040607154 -0.49386376 0.013345201 -0.86943686 -1.5812599e+20
-0.015140339 0.044625264 -0.00074167835 -0.069365092 0.064593203 -0.99549794 -1.5812594e+20
-0.008852738 0.045120262 -0.00073715951 0 0.091475859 -0.99580729 -1.5812596e+20
-0.0028926197 0.045001768 -0.00088502595 0 0.071180075 -0.99746346 -1.5812596e+20
0.0037217583 0.045357138 -0.00081980444 0 0.086647384 -0.99623901 -1.5812596e+20
0.0088976817 0.04541602 -0.00076156523 0 0.10349587 -0.99462986 -1.5812596e+20
0.015090498 0.044699907 -0.0009465192 0 0.055697586 -0.99844766 -1.5812596e+20
0.021627534 0.045100641 -0.00074161816 0.017145872 0.08441589 -0.99628305 -1.5812596e+20
0.026455814 0.046920504 -0.00051886658 0.45065078 0.12589027 -0.88377911 -1.5812601e+20
-0.020049749 -0.021196149 0.012180443 -0.89741683 -0.43194103 -0.089833617 -1.5812592e+20
-0.015510532 -0.022706032 0.010535235 -0.17856839 -0.94142777 -0.28605434 -1.581259e+20
-0.0093688034 -0.023087876 0.010626134 0 -0.95815957 -0.28623459 -1.581259e+20
-0.0031583728 -0.023063907 0.010496705 0 -0.95357007 -0.30117136 -1.581259e+20
0.0029572756 -0.023182655 0.010607025 0 -0.96195257 -0.27321649 -1.581259e+20
0.009118217 -0.023036946 0.010390512 0 -0.94888663 -0.31561694 -1.581259e+20
0.015584208 -0.022935718 0.010390987 0 -0.95072657 -0.31003079 -1.581259e+20
0.021776989 -0.022951674 0.010649283 0.071312338 -0.9578777 -0.27818149 -1.581259e+20
0.027652424 -0.021542136 0.011660253 0.81271243 -0.56461984 -0.1438852 -1.581259e+20
0.030934036 -0.019866824 0.019281685 0.99375236 -0.11160769 0 -1.5812599e+20
-0.025686199 -0.006449807 0.017366696 -0.99204546 -0.034612216 -0.12102787 -1.5812597e+20
-0.021196179 -0.0095057385 0.0099187456 -0.96421754 -0.058235347 -0.25863704 -1.581259e+20
-0.015498696 -0.010260208 0.0011610354 -0.14660026 -0.093401805 -0.98477638 -1.5812592e+20
-0.0092377905 -0.010146667 0.00090174761 0 -0.079561897 -0.99682993 -1.5812592e+20
-0.0028407914 -0.0098543037 0.0010002352 0 -0.074158743 -0.99724644 -1.5812592e+20
0.0032687727 -0.010440717 0.00096044742 0 -0.091115385 -0.99584037 -1.581259e+20
0.0094562368 -0.00971682 0.00092839549 0 -0.065324299 -0.99786413 -1.5812592e+20
0.015301216 -0.0099857943 0.00088017934 0 -0.076472811 -0.99707168 -1.5812592e+20
0.021589311 -0.010236102 0.00091897155 0.025717588 -0.085537702 -0.99600303 -1.581259e+20
0.028790424 -0.010065481 0.0083099697 0.94973898 -0.068227939 -0.30551723 -1.581259e+20
0.032288637 -0.006907138 0.016089085 0.97931951 -0.06514848 -0.19154365 -1.581259e+20
-0.025655275 0.0091771819 0.016484708 -0.96726185 0 -0.25378045 -1.5812594e+20
-0.021375645 0.0096870502 0.0097109033 -0.95329833 0 -0.30203038 -1.581259e+20
-0.015626771 0.0096100317 0.000848689 -0.13229431 0 -0.99121046 -1.5812592e+20
-0.0093561616 0.0098342858 0.00082785089 0 0 -1 -1.5812592e+20
-0.0028842543 0.009215422 0.00090140488 0 0 -1 -1.5812592e+20
0.0031162477 0.0090945559 0.00069934857 0 0 -1 -1.5812592e+20
0.0092769023 0.0094411075 0.00086713384 0 0 -1 -1.5812592e+20
0.015305323 0.0097818589 0.00067811558 0 0 -1 -1.5812592e+20
0.021469107 0.0092466753 0.00080717338 0.01907181 0 -0.99981815 -1.5812592e+20
0.028847909 0.0095130662 0.0071765045 0.93693727 0 -0.34949762 -1.581259e+20
0.032410745 0.009748416 0.015730718 0.98094809 0 -0.19427012 -1.581259e+20
-0.025635073 0.028293116 0.01636906 -0.87273365 0 -0.48819667 -1.5812596e+20
-0.021402976 0.028485255 0.0096677132 -0.9550873 0 -0.29632464 -1.581259e+20
-0.01559003 0.028940905 0.00093112176 -0.12945691 0 -0.99158508 -1.5812592e+20
-0.0092079891 0.028229307 0.00081989914 0 0 -1 -1.5812592e+20
-0.0027610178 0.028541606 0.00087203929 0 0 -1 -1.5812592e+20
0.0030029356 0.028413685 0.000717227 0 0 -1 -1.5812592e+20
0.0089933975 0.028578 0.00092799711 0 0 -1 -1.5812592e+20
0.015163009 0.028423721 0.00072545296 0 0 -1 -1.5812592e+20
0.021471841 0.028287837 0.00081731484 0.013138813 0 -0.99991369 -1.5812592e+20
0.02884558 0.028602671 0.007467411 0.9363786 0 -0.35099158 -1.581259e+20
0.032496322 0.02831259 0.015927695 0.9809168 0 -0.19442806 -1.581259e+20
-0.025666526 0.042536415 0.017004225 -0.9520278 0.1949669 -0.23586196 -1.5812601e+20
-0.020845931 0.047256354 0.0103459 -0.95722133 0.18877839 -0.2192945 -1.581259e+20
-0.015786083 0.050466672 0.0034037444 -0.1768578 0.52129853 -0.83484674 -1.581259e+20
-0.0092423977 0.049563017 0.0024118796 0.0094398819 0.43177456 -0.90193212 -1.581259e+20
-0.0030630981 0.049487192 0.0031841465 0 0.40951759 -0.91230214 -1.581259e+20
0.0031729504 0.050116926 0.0033011779 0 0.46643484 -0.88455552 -1.581259e+20
0.0094704954 0.049857121 0.0033454497 0 0.42240533 -0.90640706 -1.581259e+20
0.015391477 0.049746875 0.002712386 -0.024579182 0.44435287 -0.89551461 -1.581259e+20
0.02163478 0.049412973 0.002174976 0.021596091 0.41635218 -0.90894687 -1.581259e+20
0.028601829 0.04831177 0.009003167 0.93960035 0.22338802 -0.25932419 -1.581259e+20
0.032392856 0.04286528 0.016571645 0.96767002 0.15630226 -0.19795009 -1.5812592e+20
-0.020582207 0.057592742 0.012731908 -0.65960556 0.75015432 -0.046787117 -1.5812601e+20
-0.015564268 0.058026604 0.012960749 -0.081605963 0.99470663 -0.062443256 -1.5812592e+20
-0.009578242 0.058192629 0.013307455 0.018737089 0.99882191 -0.044763684 -1.581259e+20
-0.0030167571 0.058200713 0.012709489 0.0072312057 0.99947834 -0.031475276 -1.581259e+20
0.0031168859 0.058196772 0.01268854 1.5574687e-05 0.99899632 -0.044792954 -1.5812592e+20
0.0091719199 0.058121044 0.012392299 1.0730074e-07 0.99983257 0.018298205 -1.581259e+20
0.015757279 0.058196835 0.012883141 -0.0011736728 0.9986558 -0.051819794 -1.581259e+20
0.02182295 0.058130115 0.013264458 0.019150345 0.99787891 -0.062216431 -1.581259e+20
0.026222643 0.05794026 0.013582227 0.35199109 0.93567455 -0.024810923 -1.5812594e+20
-0.020324985 -0.021388652 0.028939841 -0.90748423 -0.41552085 0.061764549 -1.5812592e+20
-0.015472317 -0.023043109 0.031256948 -0.36181477 -0.92508972 0.11532165 -1.581259e+20
-0.0094727566 -0.024210136 0.030964687 -0.0068122791 -0.99103045 -0.13346225 -1.581259e+20
-0.0033260491 -0.024363084 0.031156445 7.595613e-05 -0.99088782 -0.13468948 -1.581259e+20
0.0030141135 -0.024302443 0.031071611 0.00010713445 -0.99086142 -0.134884 -1.581259e+20
0.00955394 -0.024297448 0.030891785 1.3464444e-05 -0.98325944 -0.18221106 -1.581259e+20
0.015645603 -0.024277233 0.030938925 0.018406225 -0.98316371 -0.18179783 -1.581259e+20
0.021536484 -0.023650378 0.031159831 0.21859524 -0.9743228 -0.053955644 -1.581259e+20
0.027681639 -0.021578189 0.029515047 0.85630083 -0.49893349 0.13346985 -1.581259e+20
0.031025499 -0.019642353 0.033244282 1 0 0 -1.5812599e+20
-0.025614453 -0.0068458137 0.02653222 -0.99783856 -0.032959104 0.056849632 -1.5812594e+20
-0.021912979 -0.01002782 0.029076243 -0.96120423 -0.13641888 0.23974222 -1.581259e+20
-0.015644895 -0.0097813373 0.037761196 -0.42274329 0.018627046 0.90605801 -1.581259e+20
-0.012275493 -0.0083097219 0.03978353 -0.84717858 0.021400362 -0.53087705 -1.5812599e+20
0.023062475 -0.0097336257 0.039203897 0.98386997 -0.0033630391 0.17885311 -1.5812596e+20
0.028606199 -0.010740563 0.032824039 0.90078485 -0.11034945 0.42001137 -1.581259e+20
0.032517262 -0.0073384722 0.027113313 0.98507994 -0.095793292 0.14297277 -1.581259e+20
-0.025644084 0.0088020377 0.026618481 -0.99829298 0 0.058404498 -1.5812592e+20
-0.022273632 0.0094350027 0.029374236 -0.96098304 -0.0058049285 0.27654624 -1.581259e+20
-0.015310544 0.0095420741 0.038217675 -0.59000671 -0.044941034 0.80614662 -1.581259e+20
-0.012286186 0.0044770837 0.040170938 -1 0 0 -1.5812599e+20
0.023090493 0.0078946734 0.039625544 0.98521191 0.0032308206 -0.17130966 -1.5812596e+20
0.028814999 0.0096295336 0.033808734 0.83647162 -0.0089043444 0.54793799 -1.581259e+20
0.032697432 0.0096088527 0.02740344 0.99143016 -4.3918753e-05 0.13063793 -1.581259e+20
-0.025689559 0.028012061 0.026796924 -0.99615246 0 0.087637134 -1.5812592e+20
-0.022157794 0.029126713 0.030544847 -0.98446012 -0.0063765007 0.17549226 -1.581259e+20
-0.016701322 0.023904633 0.038122706 -0.53254205 -0.331009 0.77899426 -1.5812596e+20
0.02341841 0.023002863 0.039527956 0.92687863 -0.37324181 -0.039832938 -1.5812601e+20
0.029208567 0.028611785 0.03411727 0.96882153 -0.05541195 0.24148358 -1.581259e+20
0.032649882 0.028531387 0.027743522 0.99092388 -3.4452787e-05 0.13442455 -1.581259e+20
-0.025686828 0.042878762 0.02580459 -0.98455292 0.14935112 0.091376856 -1.5812596e+20
-0.021364767 0.046480022 0.029817048 -0.93902218 0.2989696 0.16986609 -1.581259e+20
-0.015862593 0.052937333 0.033007503 -0.14283809 0.87400347 0.46445155 -1.581259e+20
-0.0094917053 0.053714152 0.032971051 -0.15004243 0.88568461 0.43937457 -1.581259e+20
-0.0040025627 0.052544732 0.033445839 0.41842067 0.77119124 0.47977933 -1.581259e+20
0.0030137631 0.050875239 0.033180583 2.2042219e-05 0.71559596 0.69851452 -1.581259e+20
0.0093677435 0.051832151 0.032399595 -0.30706263 0.79694784 0.52017951 -1.581259e+20
0.015383511 0.05331669 0.034030732 0.041362029 0.8827948 0.46793422 -1.581259e+20
0.021985022 0.053472966 0.033191223 0.024742343 0.88409048 0.46666041 -1.581259e+20
0.028445218 0.048830461 0.031291299 0.87364221 0.42864054 0.23025337 -1.581259e+20
0.032414995 0.043432057 0.027486531 0.96458328 0.20421742 0.16695601 -1.581259e+20
-0.019162759 0.057228833 0.022542626 -0.53361905 0.82989389 0.16287053 -1.5812599e+20
-0.014972014 0.057843536 0.023227265 -0.02713708 0.9634943 0.26635 -1.5812596e+20
-0.0090895668 0.057902005 0.02323666 -0.15488 0.96590263 0.2074714 -1.5812596e+20
-0.0031655135 0.058034472 0.024240144 0.0064328755 0.9906354 0.13638198 -1.5812594e+20
0.003101106 0.058019828 0.024549151 5.1075411e-05 0.97573739 0.21894413 -1.5812594e+20
0.0091647189 0.058123298 0.023913065 -0.0062666168 0.99618417 0.087050557 -1.5812594e+20
0.015040916 0.05798208 0.024304809 0.14813164 0.97599322 0.15966904 -1.5812594e+20
0.021677494 0.057787355 0.022885451 0.017947912 0.9670341 0.25401348 -1.5812596e+20
0.026405066 0.057906203 0.022185326 0.32909212 0.91663629 0.22688377 -1.5812601e+20
-0.018617064 -0.02072829 0.042069018 -1 0 0 -1.5812599e+20
-0.014820078 -0.022783082 0.04946468 -0.91113025 -0.35946676 0.20155725 -1.581259e+20
-0.0095114857 -0.026835149 0.05200604 -0.53038818 -0.74544966 0.4037241 -1.581259e+20
-0.0032892928 -0.028635465 0.05255615 -0.14160593 -0.9185276 0.36912704 -1.581259e+20
0.0030886414 -0.02927875 0.052884322 -0.019959005 -0.92414147 0.38152876 -1.581259e+20
0.0092362678 -0.02899752 0.052823141 0.10594484 -0.90649229 0.40871438 -1.581259e+20
0.015401757 -0.02780254 0.052331969 0.32819328 -0.87015045 0.36759672 -1.581259e+20
0.021626906 -0.024023417 0.050575852 0.82894057 -0.49322027 0.26380152 -1.581259e+20
0.02533271 -0.020885007 0.048462827 0.98947871 -0.1288417 0.065815963 -1.5812597e+20
-0.018580049 -0.012838423 0.054568648 -9.0588219e-06 -0.021585925 0.99976701 -1.5812599e+20
-0.014591072 -0.0097823804 0.051031198 -0.98636788 0.059677739 0.15335265 -1.581259e+20
-0.011066736 -0.0092112133 0.055078067 -0.83299237 -0.04140741 0.55173284 -1.581259e+20
-0.0047003506 -0.015869433 0.060950834 -0.18684156 -0.17961971 0.96582961 -1.5812599e+20
0.0015328526 -0.017805163 0.061067596 -0.074663207 -0.30632129 0.94899559 -1.5812599e+20
0.0086325556 -0.017539686 0.06111832 0.1072069 -0.29430929 0.94967818 -1.5812599e+20
0.017281739 -0.012288351 0.060514007 0.53306139 -0.10370371 0.83969706 -1.5812601e+20
0.022799445 -0.0095749702 0.052426141 0.95396137 -0.0088845314 0.29979768 -1.581259e+20
0.02552052 -0.0097236689 0.049594216 0.99594313 -0.0019234804 0.089963891 -1.581259e+20
-0.018538892 0.016780674 0.055629134 -9.0588219e-06 -0.021585925 0.99976701 -1.5812599e+20
-0.014466672 0.0094846915 0.051050026 -0.98730487 -0.066821262 0.14409718 -1.581259e+20
-0.011158107 0.0088701677 0.05574365 -0.8624813 -0.013474123 0.5059095 -1.5812592e+20
-0.0048215985 0.018160164 0.061316907 -0.13773973 0.26598629 0.95408547 -1.5812599e+20
0.017302305 0.0045699277 0.061330814 0.31578526 -0.0047722408 0.94881868 -1.5812599e+20
0.02278907 0.0098431045 0.052533206 0.95154196 -0.0060907449 0.3074587 -1.581259e+20
0.025535954 0.0095202653 0.049952451 0.99434966 -0.0022910202 0.10612988 -1.581259e+20
-0.02043424 0.033741556 0.045224186 -0.97909003 -0.02686826 0.2016454 -1.5812592e+20
-0.01521415 0.026056588 0.050252333 -0.91533709 0.023297748 0.40201402 -1.581259e+20
-0.0093770027 0.030814532 0.056657162 -0.48807779 0.50792956 0.70977992 -1.581259e+20
-0.0031888103 0.032011062 0.058803942 -0.19797307 0.47105342 0.85960186 -1.5812592e+20
0.0030388297 0.031348329 0.059628181 -0.026900277 0.37456959 0.92680854 -1.5812594e+20
0.0090429876 0.031874739 0.059589449 0.078790903 0.40509519 0.91087317 -1.5812594e+20
0.015435745 0.032678861 0.057428513 0.39644647 0.56092858 0.72676635 -1.5812592e+20
0.022140656 0.027439656 0.053065069 0.81847465 0.22656135 0.52798581 -1.581259e+20
0.027285838 0.030125219 0.047834918 0.93225968 -0.091478974 0.3500337 -1.581259e+20
0.031023361 0.035293795 0.043846823 0.99932683 -0.0027114828 0.036585782 -1.5812599e+20
-0.020479498 0.041547257 0.044277567 -0.81415296 0.41026849 0.41089517 -1.5812594e+20
-0.01543521 0.043179467 0.046031419 -0.099246286 0.70287997 0.70435077 -1.5812592e+20
-0.0089351647 0.04326402 0.046354119 -0.11886249 0.71596384 0.68794447 -1.5812592e+20
-0.0029497035 0.042976152 0.048025496 -0.077110648 0.80458128 0.5888148 -1.581259e+20
0.0030284084 0.04241186 0.049661551 -0.016016271 0.86336315 0.50432885 -1.581259e+20
0.0091001922 0.0427767 0.049078934 0.059712596 0.85222697 0.51975346 -1.581259e+20
0.014908766 0.043007243 0.04761916 0.18199383 0.7296685 0.65913749 -1.581259e+20
0.021671575 0.043486118 0.046284121 0.01120713 0.70415401 0.70995885 -1.5812592e+20
0.02738311 0.042137545 0.045482475 0.59770215 0.5663141 0.56748611 -1.5812592e+20
0.030823469 0.04033199 0.04257375 0.99015522 0.097705908 0.10023066 -1.5812599e+20
-0.0086382776 -0.021887196 0.062567294 -0.40823707 -0.31871846 0.85543042 -1.5812601e+20
-0.0026931223 -0.023455491 0.063448817 -0.14001592 -0.26422012 0.95424485 -1.5812596e+20
0.0033324854 -0.02390432 0.063517869 -0.015721397 -0.25999174 0.96548289 -1.5812596e+20
0.0093976026 -0.023405816 0.063308433 0.10290527 -0.24918279 0.96297377 -1.5812596e+20
0.014878538 -0.022263611 0.062822886 0.30588028 -0.31333891 0.89903057 -1.5812599e+20
0.019099712 -0.020078629 0.062483206 0.49450579 -0.27653942 0.82400846 -1.5812599e+20
-0.013739631 -0.0079664364 0.062368769 -0.71929717 -0.037958011 0.69366479 -1.5812601e+20
-0.0082838899 -0.0066893785 0.070500359 -0.95514745 -0.1176609 0.27175221 -1.581259e+20
-0.0038328185 -0.012007984 0.072153755 -0.7399767 -0.66081834 0.12551287 -1.581259e+20
0.003049098 -0.015550852 0.071838595 -0.073295012 -0.99593002 0.052451577 -1.581259e+20
0.0093468847 -0.014379543 0.071411781 0.41013849 -0.90566093 0.10753956 -1.581259e+20
0.01540093 -0.0077753188 0.071742333 0.9614343 -0.19066752 0.1982173 -1.581259e+20
0.020129055 -0.0085910233 0.063070476 0.63428605 -0.036112849 0.77225465 -1.5812594e+20
-0.014056878 0.0099886572 0.062415965 -0.75499201 -0.011184812 0.65563864 -1.5812601e+20
-0.0082286652 0.0076429467 0.070989206 -0.96790582 0.14894319 0.20242091 -1.581259e+20
-0.0037473899 0.012675796 0.073531307 -0.52871013 0.84122509 0.11316413 -1.581259e+20
0.003031878 0.015619843 0.073037021 -0.031709764 0.99803627 0.054019801 -1.5812592e+20
0.0093462924 0.015148154 0.072626099 0.23955128 0.96098214 0.13830575 -1.581259e+20
0.015591102 0.0083878571 0.072134264 0.93552649 0.2937769 0.19617683 -1.581259e+20
0.019956665 0.0090477411 0.063158102 0.61646408 -0.0095294397 0.78732532 -1.5812594e+20
-0.013191104 0.0269548 0.062379658 -0.53180087 0.34742814 0.77232218 -1.5812599e+20
-0.0087118568 0.025473496 0.063121006 -0.30932146 0.26686171 0.91274589 -1.5812596e+20
-0.0026690387 0.026937487 0.063668497 -0.10035906 0.25615418 0.96141207 -1.5812596e+20
0.0029343341 0.027096555 0.064060614 -0.012756828 0.28080282 0.95968068 -1.5812594e+20
0.009142234 0.02796654 0.063934512 0.078107461 0.26625353 0.96073312 -1.5812594e+20
0.015392607 0.025714526 0.063603535 0.22138342 0.25866508 0.94025618 -1.5812594e+20
0.02004602 0.023511998 0.062840149 0.52157575 0.22306606 0.82352912 -1.5812599e+20
0.001602836 -0.01928857 0.097349674 -0.23204267 -0.97259468 -0.014689911 -1.5812601e+20
-0.0076768892 -0.0065417709 0.091948725 -0.9969604 -0.064830236 0.043209367 -1.581259e+20
-0.0039628125 -0.011626511 0.092585795 -0.88631177 -0.4629938 0.0093835928 -1.581259e+20
0.0032565554 -0.017685613 0.091859072 -0.070212148 -0.99502957 -0.070614755 -1.581259e+20
0.0094764968 -0.01548194 0.092493378 0.55565584 -0.83033943 -0.042224623 -1.581259e+20
0.014718072 -0.0079911463 0.092191324 0.99432629 -0.099038728 0.038814988 -1.581259e+20
-0.0075770123 0.0094255246 0.092259593 -0.99625766 0.081129126 0.029810257 -1.581259e+20
-0.0045974869 0.010937973 0.091929592 -0.94818527 0.31422454 -0.046984676 -1.581259e+20
0.003052776 0.017961098 0.084514298 -0.04176509 0.91888589 -0.3923066 -1.5812601e+20
0.010481787 0.014150519 0.089675725 0.65835899 0.71385384 -0.23869677 -1.5812592e+20
0.01482925 0.0096898889 0.092217654 0.99242109 0.12216861 0.013240915 -1.581259e+20
-0.0073739886 0.019673565 0.097739734 -0.74681354 0.6630339 -0.051533528 -1.5812601e+20
-0.0024331065 0.020698981 0.095252611 -0.3875148 0.91119736 -0.13982725 -1.5812592e+20
0.0030022061 0.021445908 0.093309179 -0.056871213 0.97655296 -0.20762949 -1.581259e+20
0.0089815306 0.021040887 0.095044523 0.295118 0.94281292 -0.15494904 -1.581259e+20
0.013475894 0.020143609 0.096629001 0.55446208 0.82682627 -0.094499007 -1.5812596e+20
0.0016027577 -0.019276008 0.10640842 -0.22636005 -0.97125357 0.073672265 -1.5812599e+20
-0.0072163176 -0.0065559763 0.11160813 -0.99849105 0.0093600685 0.054110803 -1.581259e+20
-0.0038458558 -0.010125622 0.11276455 -0.93802822 -0.33925787 0.070761465 -1.581259e+20
0.0031021705 -0.017233336 0.11266823 -0.094998688 -0.98789197 0.12265684 -1.581259e+20
0.0099516576 -0.012256321 0.11362226 0.7582441 -0.64403921 0.10138652 -1.581259e+20
0.014183612 -0.0079152277 0.11164319 0.99736094 -0.047522441 0.054889552 -1.581259e+20
-0.0071051121 0.0094612325 0.11144512 -0.99541754 0.063322462 0.07165318 -1.581259e+20
-0.0040916177 0.010449994 0.113602 -0.95331329 0.29079756 0.081427947 -1.581259e+20
0.0026350582 0.018372202 0.11750241 -0.080640011 0.99469334 0.063893601 -1.5812596e+20
0.010644393 0.011778263 0.11517187 0.84720916 0.52478462 0.082691073 -1.581259e+20
0.014201145 0.010020443 0.11190869 0.99230701 0.10039627 0.072438605 -1.581259e+20
-0.0063540339 0.020166665 0.10378724 -0.64759505 0.75389338 0.11074939 -1.5812599e+20
-0.0020789732 0.020587124 0.10743947 -0.38175943 0.89966273 0.21181732 -1.5812594e+20
0.0031439306 0.021115502 0.1098647 -0.04437039 0.9748612 0.21835022 -1.5812592e+20
0.008960057 0.020890323 0.10815646 0.29140362 0.92461562 0.24529541 -1.5812592e+20
0.013202765 0.020253897 0.10619051 0.56152481 0.80582851 0.18796378 -1.5812601e+20
-0.0067232391 -0.0068798042 0.12945025 -0.99692482 0.059082896 0.051480208 -1.5812594e+20
-0.0035253831 -0.0077116778 0.13356803 -0.95971012 -0.27721187 0.04593391 -1.581259e+20
0.002986891 -0.013697781 0.13376838 -0.070663452 -0.99747694 0.0068174126 -1.581259e+20
0.0098765763 -0.0095163593 0.13304228 0.7984553 -0.59862947 0.064124092 -1.581259e+20
0.01369961 -0.0068468489 0.13222136 0.99810088 0.025130516 0.056241192 -1.581259e+20
-0.0067173839 0.01036144 0.12856199 -0.99626398 0.07641007 0.040243763 -1.5812594e+20
-0.0034248969 0.0096273003 0.1328209 -0.96108443 0.26778027 0.067899615 -1.581259e+20
0.0029252036 0.017476579 0.13336019 -0.4388265 0.87525529 -0.20337023 -1.5812592e+20
0.01029859 0.010959904 0.13282996 0.91962588 0.38716137 0.066289254 -1.581259e+20
0.013658508 0.0095766857 0.13250454 0.99040544 0.12841892 0.051045816 -1.581259e+20
-0.00055212778 0.022911251 0.13993047 -0.88091463 0.33901456 -0.33024001 -1.5812601e+20
0.0031639538 0.022584839 0.13688672 -0.27224511 0.85822213 -0.43512908 -1.581259e+20
0.0071975645 0.021980057 0.13632227 0.82374352 0.5256502 -0.21245776 -1.5812594e+20
-0.014210866 -0.03950996 0.16262589 -0.77623481 -0.39404702 -0.49212429 -1.5812601e+20
-0.0087279156 -0.041949973 0.16030665 -0.61256051 -0.52057046 -0.59479076 -1.5812592e+20
-0.0030507839 -0.043566976 0.15895002 -0.40048477 -0.6426627 -0.65314364 -1.5812592e+20
0.002831372 -0.044590101 0.15852961 -0.45388144 -0.61048931 -0.64907193 -1.581259e+20
0.0088656461 -0.043763231 0.15888201 0.010041946 -0.57586956 -0.81747991 -1.5812592e+20
0.015075002 -0.042403102 0.15989266 0.7541877 -0.54042381 -0.37301868 -1.5812592e+20
0.020517277 -0.040299397 0.16161804 0.60178894 -0.46009353 -0.65281248 -1.5812601e+20
-0.019656749 -0.023951676 0.16191489 -0.90820104 -0.15007189 -0.39070356 -1.5812596e+20
-0.015242485 -0.027662402 0.15856911 -0.74724042 -0.3304587 -0.5765664 -1.581259e+20
-0.0093971556 -0.028703259 0.1542547 -0.52190727 -0.37197819 -0.76762295 -1.581259e+20
-0.0030734639 -0.02853494 0.15089792 -0.20058587 -0.35749063 -0.91212159 -1.581259e+20
0.0032027992 -0.028684821 0.1504315 -0.042360622 -0.31952167 -0.94663167 -1.581259e+20
0.0093175108 -0.028819995 0.15089436 0.22766224 -0.32149431 -0.91913617 -1.581259e+20
0.015614644 -0.028610118 0.15370756 0.47971782 -0.3281211 -0.81376123 -1.581259e+20
0.021571219 -0.027959077 0.15822382 0.67294562 -0.33149511 -0.66125274 -1.581259e+20
0.026292194 -0.024315286 0.16121736 0.87984318 -0.22927754 -0.41630259 -1.5812594e+20
-0.02031762 -0.0095639816 0.15924045 -0.97374111 -0.036863487 -0.22465375 -1.581259e+20
-0.015744001 -0.0096705928 0.153715 -0.72673994 0.011713024 -0.68681282 -1.581259e+20
-0.0094522703 -0.0096273208 0.14849426 -0.50007164 0.015691543 -0.86584193 -1.581259e+20
-0.00384367 -0.011160045 0.14607218 -0.66107213 -0.069557317 -0.74709129 -1.5812592e+20
0.0026086045 -0.016158901 0.14533331 -0.047102571 -0.37023073 -0.92774487 -1.5812597e+20
0.0099933753 -0.011723447 0.14611062 0.71163261 -0.14899839 -0.68657017 -1.5812592e+20
0.015312837 -0.0095313294 0.14838932 0.56494176 5.194806e-05 -0.82513082 -1.581259e+20
0.021617211 -0.0099353539 0.15248905 0.63450372 0.0041410374 -0.77290875 -1.581259e+20
0.027203644 -0.0097152339 0.15923385 0.96730506 -0.030524656 -0.25177225 -1.581259e+20
-0.020373281 0.0094188889 0.15961626 -0.96162581 0.020908579 -0.27356669 -1.581259e+20
-0.015872637 0.0092379618 0.15502885 -0.76169848 0.036824454 -0.64688432 -1.581259e+20
-0.0092089372 0.010003825 0.14917508 -0.47812095 0.040263217 -0.8773706 -1.581259e+20
-0.0035527963 0.01011589 0.14604996 -0.83768785 0.14531562 -0.52646214 -1.5812592e+20
0.0026298587 0.017952958 0.14517032 -0.14454867 0.044956159 -0.98847586 -1.5812599e+20
0.010622593 0.010276443 0.14635345 0.90425318 0.086678892 -0.41810629 -1.5812592e+20
0.01511315 0.0098793507 0.1488577 0.59176147 0.04522109 -0.80484372 -1.581259e+20
0.021713728 0.0099970736 0.15335789 0.6576485 0.04197865 -0.75215435 -1.581259e+20
0.026967539 0.0093952231 0.1597247 0.95843875 0.021665161 -0.28447446 -1.581259e+20
-0.020150984 0.027674519 0.16075177 -0.95051163 0.049270727 -0.30675739 -1.5812592e+20
-0.015718419 0.028363995 0.15596241 -0.75497335 0.075403392 -0.65140581 -1.581259e+20
-0.009284839 0.028439306 0.15071669 -0.50024086 0.076707959 -0.86248183 -1.581259e+20
-0.0031033936 0.028825637 0.14811441 -0.27984786 0.097227357 -0.95510834 -1.581259e+20
0.0030249562 0.029382098 0.14704755 -0.17732963 0.33247235 -0.9262917 -1.5812592e+20
0.0089526055 0.02863105 0.14805405 0.3470059 0.12501973 -0.92949295 -1.581259e+20
0.015742933 0.028870847 0.15087141 0.44879097 0.076586276 -0.89034897 -1.581259e+20
0.022186685 0.028680505 0.15541153 0.70267242 0.076922096 -0.70734328 -1.581259e+20
0.026944002 0.028074764 0.16062075 0.93209636 0.055977635 -0.35785869 -1.581259e+20
-0.019643372 0.043060109 0.16189991 -0.86424488 0.24709462 -0.43820664 -1.5812596e+20
-0.015168441 0.046514742 0.15879227 -0.77820069 0.18249971 -0.60091394 -1.581259e+20
-0.0094371457 0.047254931 0.15414013 -0.55878586 0.17172168 -0.81133842 -1.581259e+20
-0.0031001116 0.046984896 0.15112041 -0.2976504 0.17595878 -0.93831915 -1.581259e+20
0.0029975343 0.047266733 0.1503662 -0.042550996 0.20058262 -0.97875232 -1.5812592e+20
0.0088483291 0.047581308 0.1510025 0.21594584 0.16983539 -0.96152139 -1.581259e+20
0.015535006 0.047379274 0.15371878 0.49867341 0.13995083 -0.85541719 -1.581259e+20
0.021519026 0.047024179 0.15853366 0.73976284 0.20579152 -0.64062536 -1.581259e+20
0.0262038 0.043065768 0.1615421 0.85860795 0.23354197 -0.45634478 -1.5812594e+20
-0.018659234 0.05914858 0.16369528 -0.73967075 0.60706329 -0.29045019 -1.5812599e+20
-0.014233897 0.064894542 0.16089515 -0.78989005 0.25054708 -0.55973202 -1.5812592e+20
-0.0094134044 0.066396102 0.15808338 -0.63691932 0.18379618 -0.74870074 -1.581259e+20
-0.0029116091 0.066242516 0.15416504 -0.34913871 0.1889756 -0.91781825 -1.581259e+20
0.0030961423 0.06624788 0.1531391 -0.01227267 0.24025245 -0.97063285 -1.581259e+20
0.0089462288 0.066425636 0.15394805 0.22753182 0.18903078 -0.95524693 -1.581259e+20
0.015303456 0.066502109 0.1569991 0.54503697 0.22599687 -0.80737853 -1.581259e+20
0.020663654 0.065066025 0.16106142 0.78569782 0.21720518 -0.57922435 -1.581259e+20
0.025267363 0.058378428 0.1626716 0.77805203 0.50005966 -0.38023061 -1.5812599e+20
-0.013616053 0.080880105 0.16260558 -0.82118583 0.2435388 -0.51608413 -1.5812599e+20
-0.0089310007 0.084651507 0.16065383 -0.658665 0.22294189 -0.71864963 -1.581259e+20
-0.0030660052 0.085373983 0.15772726 -0.37743664 0.24179666 -0.89391047 -1.581259e+20
0.0031552431 0.085539006 0.15641046 -0.062756099 0.22255106 -0.97289908 -1.581259e+20
0.0091679571 0.084899604 0.15743893 0.34777105 0.19056715 -0.91800845 -1.581259e+20
0.015279539 0.0853085 0.16038609 0.62133175 0.11763223 -0.77466738 -1.581259e+20
0.020223491 0.07956069 0.16181356 0.78921837 0.30671459 -0.5320344 -1.5812597e+20
-0.013153374 0.099374399 0.16403112 -0.86816591 -0.0040519247 -0.49625766 -1.5812599e+20
-0.0082411412 0.1045781 0.16130781 -0.73261851 0.047009729 -0.67901403 -1.581259e+20
-0.0027946369 0.10407032 0.15886921 -0.33232123 0.05759237 -0.94140619 -1.581259e+20
0.0032747213 0.10469 0.15757771 -0.066556185 0.053357776 -0.99635494 -1.581259e+20
0.0092101721 0.10443202 0.15857047 0.25855148 0.10597114 -0.96016735 -1.581259e+20
0.014821357 0.10425428 0.16133423 0.72362965 0.093741551 -0.68379283 -1.581259e+20
0.019683825 0.10419979 0.16311446 0.73192126 0.12647168 -0.66954917 -1.5812601e+20
-0.007430241 0.11727028 0.16185899 -0.72525001 0.31454471 -0.61243278 -1.5812597e+20
-0.0028065203 0.11952428 0.16118902 -0.36220363 0.41231468 -0.83594561 -1.581259e+20
0.0032940188 0.12115653 0.16037355 -0.09572722 0.50744081 -0.85635275 -1.581259e+20
0.00895047 0.12004483 0.16094406 0.27028137 0.42607716 -0.86336917 -1.5812592e+20
0.01397107 0.11821198 0.16195928 0.77032059 0.35146123 -0.53205377 -1.5812594e+20
-0.019022405 -0.038066685 0.17490795 -0.92817098 -0.36490065 0.073117144 -1.5812599e+20
-0.01493835 -0.041420396 0.17393701 -0.85624868 -0.51453674 0.045718007 -1.581259e+20
-0.0093143163 -0.045813024 0.17447799 -0.60810632 -0.78817552 0.094794832 -1.581259e+20
-0.0032279848 -0.049722891 0.17475504 -0.34394163 -0.92023748 0.18672727 -1.581259e+20
0.0031868841 -0.05123565 0.17472513 -0.047252852 -0.99840659 0.030845506 -1.581259e+20
0.0092159072 -0.049851701 0.17463917 0.36519635 -0.92789012 -0.075176798 -1.581259e+20
0.015175685 -0.046568427 0.17448516 0.55760801 -0.77879208 -0.28732616 -1.581259e+20
0.021105135 -0.042157404 0.1741178 0.79835856 -0.59482563 0.093840532 -1.581259e+20
0.02550986 -0.039258249 0.17470072 0.9111625 -0.41156819 0.019864492 -1.5812601e+20
-0.020039875 -0.027076676 0.17436215 -0.99773669 -0.066493988 -0.010005203 -1.581259e+20
-0.016919928 -0.030724077 0.17423813 -0.95689207 -0.25944746 0.1305549 -1.581259e+20
-0.010932921 -0.030735392 0.17449929 0.42135143 0.51735169 0.74485588 -1.5812599e+20
0.0082233399 -0.035535336 0.17364807 0.085533731 0 -0.99633521 -1.5812599e+20
0.016518891 -0.035109993 0.1768212 0.086063258 -0.33257955 -0.93914002 -1.5812601e+20
0.023295941 -0.034414209 0.17417014 0.84724963 -0.5238378 -0.088102542 -1.581259e+20
0.026927723 -0.027188459 0.17441015 0.99445379 -0.10465955 0.010394706 -1.581259e+20
-0.02042057 -0.0095586339 0.17491658 -0.99485439 -0.0089358715 -0.10091997 -1.581259e+20
-0.0169941 -0.0092888968 0.17261571 -0.54349542 -0.027182035 0.83897185 -1.581259e+20
-0.0093136113 -0.010230714 0.16990693 -1.2747226e-06 -0.027144127 0.99963152 -1.5812601e+20
0.024491385 -0.0077673099 0.16991229 0.9993062 9.3048402e-06 0.037243403 -1.5812601e+20
0.027348053 -0.0093666399 0.17466426 0.99852037 -0.0044430331 -0.05419641 -1.581259e+20
0.031227544 -0.0096884966 0.18344223 0.98253447 0.0020744377 -0.18606901 -1.5812599e+20
-0.020411467 0.0096020717 0.17506087 -0.99506122 -0.0013447248 -0.0992539 -1.581259e+20
-0.016980393 0.0091277584 0.17256609 -0.65936673 -0.032595292 0.75111455 -1.581259e+20
-0.010785341 0.0083827674 0.17457405 0 0.019794729 0.99980408 -1.5812599e+20
-0.0054741106 0.004817863 0.1693027 -1.911318e-05 -0.044208977 0.99902231 -1.5812599e+20
0.024522981 0.012443642 0.17194144 0.99988699 0.00077657204 0.015013372 -1.5812599e+20
0.027314346 0.0097296676 0.17454918 0.99862969 0.00021285546 -0.052332349 -1.581259e+20
0.031135365 0.014847815 0.18238765 0.98326349 0.0013265858 -0.18218464 -1.5812599e+20
-0.020312058 0.02860353 0.17479239 -0.99917889 -0.00065006316 -0.04051144 -1.581259e+20
-0.017168352 0.028360751 0.17285742 -0.75441176 -0.024941433 0.65592736 -1.581259e+20
-0.010283899 0.03068709 0.17505698 6.679842e-06 0.019806247 0.99980384 -1.5812599e+20
0.024600476 0.027251869 0.17132944 0.99958825 0.0011613596 0.028669519 -1.5812599e+20
0.027266085 0.028696341 0.17457776 0.99928391 0.0022829517 -0.037766747 -1.581259e+20
0.031425983 0.024694681 0.1842809 0.99961519 0.0091686454 -0.026180649 -1.5812599e+20
-0.019966988 0.046686076 0.17451499 -0.99797416 0.062959298 -0.0091466121 -1.581259e+20
-0.017105488 0.048782393 0.17441528 -0.99350697 0.08843229 0.07157965 -1.581259e+20
0.02389729 0.050712146 0.17404686 0.99699694 0.077400118 -0.0025279035 -1.5812592e+20
0.026767332 0.04716121 0.17434976 0.99580294 0.087829083 0.025740802 -1.581259e+20
0.030904859 0.038376272 0.18066832 0.97709149 -0.00012974365 -0.21281961 -1.5812599e+20
-0.019138241 0.060844567 0.17322244 -0.92661816 0.37490416 -0.028733088 -1.5812594e+20
-0.015911013 0.066971645 0.1745764 -0.98366386 0.17400827 0.04611494 -1.581259e+20
-0.011667995 0.071246274 0.1798189 -0.93207324 0.19414911 0.30585226 -1.5812601e+20
0.022724915 0.067879274 0.17458543 0.98871058 0.14613849 0.033088826 -1.581259e+20
0.025977353 0.063798435 0.17442131 0.95377851 0.29927871 0.02718134 -1.581259e+20
-0.014235782 0.083942868 0.1740296 -0.97874355 0.2048903 -0.0090019656 -1.581259e+20
-0.010631901 0.087645084 0.17468575 -0.99818575 0.049729589 0.033942945 -1.581259e+20
0.017331323 0.088108748 0.1746217 0.99459982 0.094174832 0.043614838 -1.581259e+20
0.020877926 0.08508525 0.17456536 0.97683746 0.21397509 0.0017833736 -1.581259e+20
0.025248062 0.078551032 0.17382313 0.96828866 0.24876437 -0.02309574 -1.5812601e+20
-0.013482088 0.10402011 0.17362298 -0.99989992 0.014141312 -0.00047822818 -1.581259e+20
-0.010301088 0.10486891 0.17471434 -0.97451252 0.21824042 0.051927444 -1.581259e+20
0.017098296 0.10523099 0.17494784 0.98129725 0.15094243 0.1194655 -1.581259e+20
0.02015548 0.10411541 0.17437771 0.99805129 0.061850522 0.0082568014 -1.581259e+20
-0.013235764 0.11625771 0.1734169 -0.95888829 0.27237713 -0.079648368 -1.5812597e+20
-0.0089938305 0.12025024 0.1745688 -0.87798679 0.47845829 0.014727616 -1.581259e+20
-0.0031547688 0.12634495 0.17427644 -0.50793046 0.86096257 0.027386842 -1.581259e+20
0.0029851389 0.12872744 0.17470191 -0.037663601 0.99233353 0.11771036 -1.581259e+20
0.0093152067 0.12733966 0.17481506 0.40333286 0.91370636 0.049631447 -1.581259e+20
0.015543532 0.12152091 0.17447744 0.82693177 0.56217492 0.011965885 -1.581259e+20
0.019885341 0.11733493 0.17370066 0.93929303 0.34181097 0.029898632 -1.5812592e+20
-0.00035422295 0.13463239 0.17397794 -0.99960142 0.028227409 0.0003351894 -1.5812599e+20
0.0032427122 0.13478947 0.17425714 -0.57510048 0.80002868 0.17091972 -1.5812592e+20
0.0072027473 0.13496041 0.17436516 0.91479784 0.36106375 -0.18104668 -1.5812601e+20
-0.013762666 -0.039753739 0.18610208 -0.7579155 -0.42949799 0.49101487 -1.5812601e+20
-0.0091283033 -0.041774083 0.18771289 -0.49818909 -0.54270738 0.67622215 -1.5812592e+20
-0.0029936389 -0.043577418 0.18973726 -0.27597612 -0.57147968 0.77281821 -1.581259e+20
0.0030186982 -0.044063192 0.19012737 0.18000969 -0.60812151 0.7731654 -1.581259e+20
0.0092926957 -0.043276582 0.19024107 0.35627335 -0.58789784 0.72625428 -1.581259e+20
0.015423751 -0.041825835 0.1884802 0.38278103 -0.52214772 0.76212895 -1.5812592e+20
0.020087121 -0.040057249 0.18638538 0.70460612 -0.44107491 0.55586249 -1.5812601e+20
-0.019367455 -0.023116939 0.18665218 -0.87856495 -0.26330268 0.39849135 -1.5812597e+20
-0.015211419 -0.026890084 0.18961643 -0.73652685 -0.3451297 0.58173341 -1.581259e+20
-0.0093167899 -0.02895188 0.19379009 -0.47821268 -0.35955039 0.80127162 -1.581259e+20
-0.0032651748 -0.028540045 0.19684291 -0.2675443 -0.28581709 0.92017853 -1.581259e+20
0.0030782013 -0.028921654 0.19752656 0.029239047 -0.2639159 0.96410245 -1.581259e+20
0.009542061 -0.028693244 0.19715489 0.20522095 -0.29264843 0.93393856 -1.581259e+20
0.015466249 -0.028006515 0.19508062 0.42950806 -0.35140687 0.83188701 -1.581259e+20
0.021526599 -0.027570339 0.1904235 0.69599348 -0.33122608 0.63708889 -1.581259e+20
0.026137982 -0.024348609 0.18710954 0.85010171 -0.28096965 0.44540226 -1.5812594e+20
-0.020545343 -0.0096303057 0.18851669 -0.94266587 -0.014557437 0.33342043 -1.581259e+20
-0.015674133 -0.0094347801 0.1942638 -0.70089471 0.0089912498 0.71320808 -1.581259e+20
-0.0092432462 -0.0095878318 0.19908938 -0.46916723 0.014043897 0.88299769 -1.581259e+20
-0.0031941636 -0.009520039 0.20063291 0.06255617 -0.0001294293 0.99804145 -1.581259e+20
0.0028896211 -0.0095474748 0.20000352 0.037451029 -0.0014418437 0.99929732 -1.581259e+20
0.0094445655 -0.0097814184 0.20019086 -0.10495693 -0.0041964613 0.99446791 -1.581259e+20
0.015447376 -0.0094041182 0.19972929 0.37111011 0.015334983 0.92846221 -1.581259e+20
0.021760128 -0.0095707728 0.19572107 0.63334894 0.025244696 0.77345449 -1.581259e+20
0.027340785 -0.0095655881 0.18947211 0.91109949 -0.013889914 0.41195238 -1.581259e+20
0.031240189 -0.0058721961 0.18576464 0.99991798 0.0092776688 -0.0088265724 -1.5812599e+20
-0.020316549 0.0094283447 0.18822229 -0.92590708 0.02987664 0.37656808 -1.581259e+20
-0.015558624 0.0097720474 0.19347416 -0.70858067 0.041424979 0.70441282 -1.581259e+20
-0.00931032 0.009630247 0.19823195 -0.46962279 0.042786729 0.8818298 -1.581259e+20
-0.003243488 0.0099996347 0.20046031 -0.079906523 0.020707607 0.99658722 -1.581259e+20
0.0031414581 0.0093148947 0.20004366 0.033729281 -0.00042241358 0.99943089 -1.581259e+20
0.009314267 0.0095059657 0.20007445 -0.072451904 0.0036064272 0.99736536 -1.581259e+20
0.015410644 0.0093774162 0.19920263 0.42652357 0.040547151 0.90356714 -1.581259e+20
0.021466725 0.009775768 0.19523829 0.63342905 0.040750101 0.77272707 -1.581259e+20
0.027006576 0.0092525007 0.18917288 0.88158315 0.033318125 0.47085145 -1.581259e+20
0.031095535 0.002468735 0.18708152 0.97379601 0.018905887 0.22663599 -1.5812599e+20
-0.020142762 0.027664278 0.18697441 -0.8897835 0.0721571 0.45064253 -1.581259e+20
-0.015594535 0.028695216 0.19194336 -0.73228478 0.077325903 0.67659414 -1.581259e+20
-0.0095669795 0.028764712 0.19669609 -0.50131607 0.076450191 0.86188024 -1.581259e+20
-0.0032738289 0.028328411 0.19959694 -0.24521181 0.068935856 0.96701556 -1.581259e+20
0.003423739 0.028495664 0.19997619 0.012346581 0.01505691 0.99981046 -1.581259e+20
0.0098968185 0.028475931 0.19969241 0.16220485 0.059389688 0.9849683 -1.581259e+20
0.015418733 0.028681792 0.19773939 0.44358054 0.075464852 0.89305168 -1.581259e+20
0.021508578 0.028966313 0.1934384 0.66375023 0.076953411 0.74398512 -1.581259e+20
0.026777409 0.027699538 0.18795723 0.85720009 0.075301237 0.50944847 -1.581259e+20
-0.019200198 0.042336646 0.18668127 -0.8428762 0.25582147 0.47340795 -1.5812599e+20
-0.014878804 0.046924673 0.18897143 -0.76646829 0.16459036 0.62083524 -1.581259e+20
-0.0091332337 0.047447063 0.19375663 -0.54465771 0.16416751 0.82243359 -1.581259e+20
-0.0032663711 0.047428463 0.19659321 -0.30860636 0.16889487 0.93607509 -1.581259e+20
0.0031079336 0.047061667 0.19770512 -0.033305444 0.16612361 0.9855423 -1.581259e+20
0.0095163696 0.047697823 0.19692895 0.2338865 0.16051404 0.95892245 -1.581259e+20
0.015447191 0.04760953 0.19455016 0.48436499 0.17126757 0.85793823 -1.581259e+20
0.021362863 0.047499727 0.18962143 0.73794532 0.15323262 0.65723401 -1.581259e+20
0.02588246 0.043867514 0.18684709 0.84904867 0.20592239 0.48653075 -1.5812594e+20
-0.01392698 0.064381167 0.18679763 -0.80491471 0.2116912 0.55434567 -1.5812592e+20
-0.0094476547 0.066320017 0.18995979 -0.62476683 0.14946081 0.76637316 -1.581259e+20
-0.0032187232 0.06653443 0.19349538 -0.35605681 0.17959653 0.91704339 -1.581259e+20
0.0029820732 0.066171169 0.19464283 -0.023971748 0.17663033 0.98398536 -1.581259e+20
0.0094006741 0.06658867 0.19398859 0.27088296 0.1283944 0.95401114 -1.581259e+20
0.01555117 0.066613711 0.19086167 0.54175693 0.13659829 0.82936138 -1.581259e+20
0.020516329 0.064809047 0.18735582 0.76767033 0.2028794 0.60788339 -1.581259e+20
0.024981499 0.061758835 0.18559472 0.86505079 0.26247233 0.42754585 -1.5812599e+20
-0.013058645 0.0803423 0.18543336 -0.82793456 0.19442822 0.52604371 -1.5812599e+20
-0.008638273 0.084276564 0.18741161 -0.6675449 0.19027859 0.71984571 -1.581259e+20
-0.003233108 0.085138038 0.18996707 -0.42876974 0.17315942 0.88666362 -1.581259e+20
0.0030830307 0.085440651 0.19158991 -0.048591174 0.17222312 0.98385876 -1.581259e+20
0.0094008949 0.085530102 0.19073784 0.29950765 0.19236171 0.93450093 -1.581259e+20
0.014950965 0.084898323 0.18800077 0.57546258 0.29743809 0.76182246 -1.581259e+20
0.019682661 0.079956681 0.1867972 0.76710737 0.29018205 0.572137 -1.5812599e+20
-0.0078984909 0.10372575 0.18662667 -0.62193638 0.049375284 0.78150952 -1.5812592e+20
-0.0030689288 0.10469759 0.18877769 -0.43424359 0.033098385 0.90018725 -1.581259e+20
0.00326945 0.10436746 0.19024558 -0.074828908 0.069364093 0.99478102 -1.581259e+20
0.0094621759 0.10501395 0.18926479 0.41432729 0.058816869 0.90822548 -1.581259e+20
0.014640236 0.10414702 0.18692049 0.50975728 0.073025532 0.85721338 -1.581259e+20
0.019090354 0.09873797 0.18598083 0.79576254 -0.004637429 0.60559112 -1.5812599e+20
-0.0079800617 0.11668973 0.18566011 -0.59034121 0.29470366 0.75142998 -1.5812601e+20
-0.0026832791 0.11870386 0.18716639 -0.48453602 0.37815177 0.78881311 -1.5812592e+20
0.0031673056 0.12023655 0.18765123 -0.035162725 0.45648909 0.88903397 -1.581259e+20
0.0090708788 0.11944316 0.18749274 0.4435299 0.42805424 0.78743309 -1.5812592e+20
0.014425838 0.11798811 0.18603577 0.28453159 0.33950391 0.89653718 -1.5812596e+20
0.019549191 0.11588296 0.18506318 0.8519069 0.25230595 0.45890778 -1.5812599e+20
