# .PCD v0.7 - Point Cloud Data file format
VERSION 0.7
FIELDS x y z normal_x normal_y normal_z curvature
SIZE 4 4 4 4 4 4 4
TYPE F F F F F F F
COUNT 1 1 1 1 1 1 1
WIDTH 523
HEIGHT 1
VIEWPOINT 0 0 0 1 0 0 0
POINTS 523
DATA ascii
-0.0149405 -0.018604219 -0.0001103878 0 0 -1 4.1351278e-10
-0.011231333 -0.018175229 -1.7516315e-05 0 0 -1 4.1351278e-10
-0.0028672218 -0.025601715 -3.5971403e-05 0 0 -1 4.1351278e-10
0.0015358031 -0.019758001 -7.5861812e-05 0 0 -1 4.1351278e-10
0.011956334 -0.025485635 -0.00010984391 0 0 -1 4.1351278e-10
-0.014176369 -0.0028347671 -5.0440431e-05 0 0 -1 4.1351278e-10
-0.0067213178 -0.0067212433 -3.3661723e-05 0 0 -1 4.1351278e-10
-0.0025310069 -0.0039425865 -5.6169927e-05 0 0 -1 4.1351278e-10
0.0029138476 -0.0037136972 -1.5899539e-05 0 0 -1 4.1351278e-10
0.0073476881 -0.0079666078 -7.6238066e-05 0 0 -1 4.1351278e-10
0.012512481 -0.0048997463 -5.8463214e-05 0 0 -1 4.1351278e-10
0.015661567 -0.0030378103 -4.4763088e-05 0 0 -1 4.1351278e-10
-0.015519783 0.012901962 -0.00023165345 -1 0 0 4.1351278e-10
-0.011750435 0.0077851661 -5.5695575e-05 0 0 -1 4.1351278e-10
-0.0070540733 0.0073568439 -7.0261107e-05 0 0 -1 4.1351278e-10
-0.0024885014 0.0096912682 -8.855015e-05 0 0 -1 4.1351278e-10
0.0021476049 0.0073753796 -8.7333225e-05 0 0 -1 4.1351278e-10
0.0069373674 0.0069170594 -0.00010721172 0 0 -1 4.1351278e-10
0.012285995 0.0084860679 -0.00011672378 0 0 -1 4.1351278e-10
0.015382111 0.011080921 -0.00011512637 0 0 -1 4.1351278e-10
-0.014943063 0.029555589 -0.00030067563 0 0 -1 4.1351278e-10
-0.011884076 0.023403537 -0.00013192595 0 0 -1 4.1351278e-10
-0.0072895088 0.025815019 -0.00014728308 0 0 -1 4.1351278e-10
-0.0022768795 0.022916222 -0.00013850331 0 0 -1 4.1351278e-10
0.0024017096 0.023285974 -0.00017558932 0 0 -1 4.1351278e-10
0.0074584982 0.025773456 -0.0001830558 0 0 -1 4.1351278e-10
0.012024969 0.021902248 -0.00016245246 0 0 -1 4.1351278e-10
0.015577723 0.021090508 -0.00020089746 0 0 -1 4.1351278e-10
-0.015371993 0.037225038 -0.00014096498 -0.70710677 0 -0.70710677 4.1351278e-10
-0.012249236 0.041118909 -0.00020515919 0 0 -1 4.1351278e-10
-0.0077341795 0.03795889 -0.00020305812 0 0 -1 4.1351278e-10
-0.0027257104 0.039763052 -0.00022912771 0 0 -1 4.1351278e-10
0.0024008513 0.040758729 -0.00024144948 0 0 -1 4.1351278e-10
0.0068943202 0.040214341 -0.00024408102 0 0 -1 4.1351278e-10
0.012243653 0.039407898 -0.00027510821 0 0 -1 4.1351278e-10
0.015498996 0.03817898 -0.0002515316 0 0 -1 4.1351278e-10
-0.014943659 0.052642584 -0.00018787384 0 0.70710629 -0.70710725 4.1351278e-10
-0.0082926257 0.050257802 -0.00025626519 0 0 -1 4.1351278e-10
-0.001589641 0.051724106 -0.00028443336 0 0.3826831 -0.92387968 4.1351278e-10
0.0071805618 0.050804216 -0.00030323863 0 0 -1 4.1351278e-10
0.015966654 0.050595939 -0.00031486154 0 0 -1 4.1351278e-10
-0.015661223 -0.022476137 0.006940132 -1 0 0 4.1351367e-10
-0.012747765 -0.023953136 0.0054960349 -0.5781222 -0.4927178 -0.65038747 4.1351406e-10
-0.0074329623 -0.025071561 0.0044633788 0 -0.62655693 -0.77937573 4.1351386e-10
-0.0025765644 -0.025487561 0.0047453768 -0.016791401 -0.67255121 -0.73986012 4.1351383e-10
0.0022781722 -0.025166078 0.0043867491 0.0059982301 -0.57214427 -0.82013106 4.1351386e-10
0.0072754077 -0.025130378 0.0046843542 0 -0.65958989 -0.75162572 4.1351386e-10
0.012497985 -0.024950448 0.0051505389 0.18990755 -0.67198056 -0.71580541 4.1351397e-10
0.016294694 -0.022339959 0.0067069237 0.98983496 -0.0050760768 -0.14213015 4.1351397e-10
-0.015677413 -0.0078582074 0.0062257918 -0.99973881 0 -0.022851173 4.1351383e-10
-0.012985958 -0.0081614181 0.0046190908 -0.68645269 0 -0.72717446 4.1351403e-10
-0.0072533637 -0.0083496524 0.0016124052 0 0 -1 4.1351358e-10
-0.0023341181 -0.0082487576 0.001757307 0 0 -1 4.1351347e-10
0.0022561862 -0.0083954772 0.0015294863 0 0 -1 4.1351358e-10
0.0072647599 -0.0084621757 0.0017318736 0 0 -1 4.1351353e-10
0.012837679 -0.0081516113 0.0033454583 0.31197044 0 -0.95009178 4.1351383e-10
0.016308881 -0.0079561155 0.0062672477 0.98407733 0 -0.17774084 4.1351408e-10
-0.0157075 0.0081268307 0.0065994742 -0.99985474 0 -0.017042978 4.1351383e-10
-0.012966468 0.008118988 0.0045979964 -0.67705655 0 -0.73593104 4.1351403e-10
-0.0072411243 0.0077362643 0.0017184124 0 0 -1 4.135135e-10
-0.0024632215 0.0082388939 0.0018228935 0 0 -1 4.1351336e-10
0.0024027824 0.0081783636 0.001652585 0 0 -1 4.1351358e-10
0.0074057239 0.0080664288 0.0017239414 0 0 -1 4.1351345e-10
0.012816575 0.0080318302 0.0035768421 0.36055428 0 -0.93273824 4.1351378e-10
0.016265135 0.0079488112 0.0063148616 0.98491728 0 -0.17302601 4.1351406e-10
-0.015719799 0.024266187 0.0063492088 -0.99992919 0 -0.011903918 4.1351381e-10
-0.012886778 0.024008013 0.0046507493 -0.69299698 0 -0.72094041 4.1351406e-10
-0.0071741724 0.0246602 0.0017624175 0 0 -1 4.1351342e-10
-0.0026711293 0.023916176 0.0017951548 0 0 -1 4.1351345e-10
0.0023628473 0.024190338 0.0016691156 0 0 -1 4.1351364e-10
0.0075703999 0.02403006 0.0017231591 0 0 -1 4.135135e-10
0.012878528 0.024448033 0.0036394887 0.34496173 0 -0.93861675 4.1351375e-10
0.016203592 0.024024233 0.0062949993 0.98175323 0 -0.19015941 4.1351408e-10
-0.015648041 0.040073924 0.0064247642 -0.99970627 0 -0.024235304 4.1351381e-10
-0.01290832 0.040484805 0.0055594328 -0.80734146 0.14551811 -0.57186037 4.1351411e-10
-0.007310614 0.041656967 0.0047563026 0 0.32192266 -0.94676596 4.1351386e-10
-0.0023365426 0.041424282 0.0046706963 0 0.29270718 -0.95620209 4.1351375e-10
0.0022928491 0.041410945 0.0043858043 0 0.26810718 -0.96338904 4.1351383e-10
0.0072166608 0.041610785 0.0045040939 0 0.27121735 -0.9625181 4.1351381e-10
0.012765887 0.040998321 0.0051149921 0.48593533 0.22234336 -0.84523976 4.1351403e-10
0.016335722 0.040136941 0.0064483052 0.99326068 0.029256349 -0.11214859 4.1351408e-10
-0.015687207 0.051434767 0.0044620209 -0.99970275 0.014905231 0.019296749 4.1351278e-10
-0.01245442 0.051842421 0.004751584 -0.18451434 0.98145002 -0.052062247 4.1351367e-10
-0.0073947655 0.05203449 0.0047762608 0 0.9995594 -0.029682273 4.1351356e-10
-0.0024397213 0.052013136 0.0050167977 0 0.99403393 0.1090709 4.135135e-10
0.0023544508 0.05219131 0.0045611174 0 0.99734902 -0.072766066 4.1351347e-10
0.0072675184 0.052010152 0.0048804991 0 1 -4.6441754e-05 4.1351356e-10
0.012475069 0.051944956 0.0050135879 0.02530027 0.99743438 0.066966325 4.1351364e-10
0.016179672 0.051505525 0.0050776862 0.77230662 0.61202079 0.1702147 4.1351306e-10
-0.015815077 -0.021379504 0.016817056 -0.99584717 -0.0088314265 0.090611607 4.1351278e-10
-0.012660662 -0.022045681 0.019542275 -0.83539903 -0.37669688 0.40025973 4.1351386e-10
-0.0074731717 -0.02422337 0.019312425 0 -0.92929405 0.36934051 4.1351342e-10
-0.002589681 -0.024256226 0.019419286 0 -0.91799754 0.39658597 4.1351336e-10
0.0022109477 -0.024169657 0.019408852 0 -0.90708411 0.4209494 4.1351333e-10
0.007245671 -0.024350002 0.019226911 0 -0.90549344 0.42436019 4.1351347e-10
0.012575574 -0.022783004 0.019803775 0.59648126 -0.68682802 0.41530401 4.1351367e-10
0.016057748 -0.021059671 0.017675908 0.97842109 -0.049427729 0.20062165 4.1351358e-10
-0.015611802 -0.0082112094 0.01668564 -0.99820483 0 0.059892289 4.1351336e-10
-0.013115002 -0.0081143482 0.020670051 -0.98483068 0 0.17351779 4.1351403e-10
0.013416618 -0.0081969397 0.021499969 0.98858839 0 0.15064204 4.135135e-10
0.016009115 -0.0079704309 0.018312212 0.98328197 0 0.18208925 4.1351397e-10
-0.015632849 0.008247328 0.016872771 -0.99357313 0 0.11319187 4.1351311e-10
-0.013105163 0.0080442317 0.020485034 -0.98957437 0 0.14402257 4.1351403e-10
0.013427505 0.0080564432 0.021667669 0.99700367 0 0.077353731 4.1351353e-10
0.016047304 0.0080538085 0.018132152 0.98078847 0 0.19507395 4.1351397e-10
-0.015666792 0.023190146 0.015974708 -0.99672091 0.019370096 0.078564137 4.1351286e-10
-0.012736534 0.022156773 0.018950552 -0.64360195 0.55298966 0.52913034 4.1351386e-10
-0.007390846 0.024383953 0.018837936 0 0.6468693 0.7626009 4.1351328e-10
-0.0024725301 0.023857053 0.019228801 0 0.6845637 0.728953 4.1351303e-10
0.0023530431 0.024150085 0.019012051 0 0.61395466 0.78934127 4.1351314e-10
0.0072552795 0.023953963 0.019364214 0 0.68212056 0.73123974 4.1351317e-10
0.012700752 0.023432892 0.01915635 0.30892777 0.57960379 0.75407106 4.135137e-10
0.016111759 0.022619434 0.016931323 0.95739335 0.12322681 0.26117632 4.135137e-10
-0.015610083 0.037654653 0.014801083 -0.95782626 0.11682529 0.26252744 4.1351278e-10
-0.012403785 0.037637282 0.014722024 -0.10691854 0.30302039 0.9469673 4.1351278e-10
-0.0074393763 0.038048543 0.015170949 0 0.31086397 0.95045435 4.1351278e-10
-0.002504932 0.037558682 0.01505864 0 0.29262379 0.95622766 4.1351278e-10
0.0026297132 0.037761096 0.015156807 0 0.30244789 0.95316595 4.1351278e-10
0.0074570924 0.037921548 0.015034806 0 0.30441847 0.95253843 4.1351278e-10
0.012407104 0.038108733 0.015184349 0.016462458 0.30944824 0.95077378 4.1351278e-10
0.016058477 0.037535518 0.014509032 0.46939531 0.2808452 0.83713442 4.1351278e-10
-0.014920969 -0.018408054 0.032914598 1 0 0 4.1351278e-10
-0.012325804 -0.01987703 0.03259436 0.54765916 0.82443243 -0.14276035 4.1351378e-10
-0.0070996364 -0.02151251 0.032894008 0 0.98533636 -0.17062278 4.1351322e-10
-0.0026469233 -0.021479093 0.033084884 0 0.98533636 -0.17062281 4.1351311e-10
0.0022195156 -0.021530978 0.032862581 0 0.98533648 -0.17062275 4.1351328e-10
0.0073745134 -0.021558324 0.033070695 0 0.98533642 -0.17062274 4.1351331e-10
0.012525297 -0.020346818 0.032432795 -0.49301261 0.85726458 -0.14844564 4.1351364e-10
0.014994279 -0.018794168 0.032434296 -1 0 0 4.1351278e-10
-0.014943446 -0.007584332 0.032085113 -1 0 0 4.1351278e-10
-0.012722637 -0.008069871 0.032995749 -1 0 0 4.1351381e-10
0.013299921 -0.0081715202 0.032617662 1 0 0 4.1351397e-10
0.015027194 -0.0081467004 0.032759242 1 0 0 4.1351325e-10
-0.015001986 0.0074370122 0.032113131 -1 0 0 4.1351278e-10
-0.012694725 0.0080002891 0.032880068 -1 0 0 4.1351381e-10
0.013258483 0.0082565518 0.032705791 1 0 0 4.1351397e-10
0.015040469 0.0080574164 0.0324555 1 0 0 4.1351328e-10
-0.014992042 0.019006303 0.030237112 -0.80000001 0.60000002 0 4.1351278e-10
-0.01227886 0.019240167 0.032791775 -0.54498833 0.83844358 0 4.1351358e-10
-0.0073541515 0.020727636 0.032883018 0 1 0 4.1351306e-10
-0.0024471083 0.020659968 0.032677148 0 1 0 4.1351295e-10
0.0023892019 0.020669131 0.032639299 0 1 0 4.1351295e-10
0.0073275743 0.020677866 0.032636639 0 1 0 4.1351297e-10
0.012529093 0.01962778 0.032670137 0.41158673 0.91137064 0 4.1351361e-10
0.015051799 0.018684993 0.032623488 0.88378793 0.46788773 0 4.1351278e-10
-0.014889097 -0.017778074 0.045718648 1 0 0 4.1351278e-10
-0.012191164 -0.018385701 0.045386143 0.79894441 0.58727413 -0.1296034 4.1351328e-10
-0.0072979243 -0.019081047 0.04615419 0 0.97511244 -0.22171059 4.1351311e-10
-0.002539878 -0.019091018 0.046077907 0 0.97536618 -0.2205918 4.1351314e-10
0.0023372301 -0.019093495 0.046034157 0 0.97419232 -0.22571979 4.1351314e-10
0.0072991517 -0.019193068 0.045874689 0 0.97548848 -0.22005051 4.1351317e-10
0.012409687 -0.018562911 0.045489728 -0.6563229 0.73599136 -0.16600248 4.1351325e-10
0.015040849 -0.017513007 0.045457046 -1 0 0 4.1351278e-10
-0.014883766 -0.0079466039 0.045146152 -1 0 0 4.1351278e-10
-0.012710731 -0.0079445466 0.046026472 -1 0 0 4.1351406e-10
0.013241502 -0.0079794489 0.046043392 1 0 0 4.13514e-10
0.015052793 -0.008212979 0.045642313 0 0 0 4.1351325e-10
-0.014884197 0.0082662338 0.045987297 -1 0 0 4.1351278e-10
-0.012697203 0.0080391644 0.046053443 -1 0 0 4.1351395e-10
0.013284599 0.0082051829 0.045818634 1 0 0 4.13514e-10
0.015075569 0.0082201138 0.045494594 1 0 0 4.1351328e-10
-0.014970869 0.0188374 0.045939147 -0.94868326 0.31622776 0 4.1351278e-10
-0.012329265 0.019258972 0.045744769 -0.53877568 0.84244925 0 4.1351364e-10
-0.0072841141 0.020734034 0.045985706 0 1 0 4.13513e-10
-0.002452523 0.020688107 0.045959335 0 1 0 4.1351306e-10
0.0023443724 0.020685533 0.04566196 0 1 0 4.1351303e-10
0.0073008663 0.020683894 0.045952801 0 1 0 4.1351306e-10
0.012587895 0.019621827 0.045769058 0.35435748 0.93511003 0 4.1351358e-10
0.015136705 0.018896041 0.046103809 0.88378793 0.46788773 0 4.1351278e-10
-0.012233336 -0.016987769 0.055042639 0.33282006 0.89744455 -0.28952372 4.1351278e-10
-0.0075864494 -0.016972279 0.055177402 0 0.95170075 -0.30702731 4.1351278e-10
-0.0025851389 -0.016890807 0.055324897 0 0.95170069 -0.30702728 4.1351278e-10
0.0019498446 -0.016997505 0.055051718 0 0.95170069 -0.30702728 4.1351278e-10
0.0070066787 -0.016994545 0.055226415 0 0.95170075 -0.30702728 4.1351278e-10
0.011810976 -0.016859222 0.055262882 -0.40081877 0.87190759 -0.28128526 4.1351278e-10
0.014855683 -0.01682435 0.053084765 -1 0 0 4.1351278e-10
-0.015303869 -0.0068975557 0.062016096 0.99970275 0 0.024382994 4.1351278e-10
-0.012595644 -0.0085133491 0.058810767 0.98402262 0.17559105 0.029448649 4.1351406e-10
-0.0073103579 -0.014529907 0.060989577 0 0.95169574 -0.30704272 4.1351278e-10
-0.0026076997 -0.014705362 0.060582526 0 0.95169938 -0.30703136 4.1351278e-10
0.0023879593 -0.014607092 0.061002526 0 0.95169717 -0.30703822 4.1351278e-10
0.0072343568 -0.014591129 0.060854912 0 0.95169741 -0.3070375 4.1351278e-10
0.013004096 -0.0089568822 0.059111927 -0.96835881 0.24575585 -0.043420963 4.13514e-10
0.015301435 -0.007811395 0.05937482 -0.96476382 0 0.2631174 4.1351328e-10
-0.015317705 0.007556254 0.062181834 -0.97439116 0 -0.22485949 4.1351278e-10
-0.012720138 0.008125999 0.05864903 -0.99715221 0 -0.075414874 4.1351406e-10
0.013334977 0.0081498725 0.058880184 0.99637097 0 -0.085117117 4.1351397e-10
0.015322637 0.0079889717 0.05951874 0.98012936 0 -0.19835952 4.1351328e-10
-0.015242517 0.018563177 0.06293036 -0.98321354 0.13308908 -0.12481345 4.1351278e-10
-0.012306718 0.019378809 0.059017334 -0.50359964 0.85654604 -0.1127662 4.1351353e-10
-0.0074481624 0.020795798 0.058801588 0 0.99725598 -0.074031413 4.1351297e-10
-0.0024894269 0.020769905 0.058890935 0 0.99843693 -0.05588961 4.13513e-10
0.002299441 0.020750253 0.058836192 0 0.99847454 -0.05521274 4.1351303e-10
0.0071381782 0.020750452 0.05930955 0 0.99632072 -0.085702449 4.1351292e-10
0.012597625 0.019749831 0.058864862 0.31736204 0.94321513 -0.098115034 4.1351364e-10
0.01548792 0.018729415 0.060842179 0.91443992 0.33876574 -0.22144407 4.1351278e-10
-0.015767803 -0.0062747118 0.072374515 1 0 0 4.1351378e-10
-0.013005315 -0.0088758823 0.07208509 0.75253636 0.65824318 0.020120891 4.1351372e-10
-0.0073405937 -0.012234107 0.071462698 0 0.99405169 -0.10890912 4.1351289e-10
-0.0024912937 -0.012178634 0.072213516 0 0.99716347 -0.075266823 4.1351278e-10
0.0022211808 -0.012258402 0.071440928 0 0.9944818 -0.10490927 4.1351284e-10
0.0071517439 -0.012223968 0.071875885 0 0.99595892 -0.089810736 4.1351286e-10
0.013001604 -0.0097159883 0.071887016 -0.49243608 0.86938733 -0.040893041 4.1351364e-10
0.016175257 -0.0064451396 0.071899354 -0.9999873 0.0048063002 -0.0015512684 4.1351392e-10
-0.015784768 0.0082465261 0.072063312 -1 0 0 4.1351392e-10
-0.013655351 0.0082012555 0.072214149 -0.99740624 0 -0.071977772 4.1351342e-10
0.014185729 0.0081712995 0.071605563 0.9830603 0 -0.18328243 4.13513e-10
0.016213693 0.0082469331 0.072219513 1 0 0 4.13514e-10
-0.015792813 0.020541379 0.072090432 -0.99985194 0.01614162 -0.0059649614 4.1351339e-10
-0.012710436 0.02217222 0.071659647 -0.36713764 0.90061212 -0.23261082 4.1351361e-10
-0.0070900517 0.025239535 0.071476862 -0.53037679 0.77506304 -0.34347907 4.1351339e-10
-0.0027033505 0.026156293 0.071218535 0 0.93673915 -0.35002834 4.1351325e-10
0.0023468218 0.026207326 0.071324058 0 0.94312233 -0.33244595 4.135132e-10
0.0073519386 0.025845131 0.071971551 0.5766679 0.75766951 -0.30559957 4.1351353e-10
0.012918303 0.022413606 0.071766764 0.25261861 0.92644131 -0.27908826 4.1351347e-10
0.016205058 0.020898802 0.072189108 0.93289733 0.35103652 -0.080472887 4.1351364e-10
0.0016342551 -0.048345476 0.091807157 9.9639783e-06 -0.76713681 -0.64148355 4.1351278e-10
-0.015874501 -0.035295442 0.091242574 -0.70076895 -0.13316597 -0.70084929 4.1351278e-10
-0.012059203 -0.037527662 0.089350007 -0.65336239 -0.25577521 -0.71252835 4.1351303e-10
-0.0073642489 -0.039517168 0.088219345 -0.27243173 -0.35729706 -0.89337546 4.1351328e-10
-0.0025771682 -0.040450215 0.087548077 -0.23587734 -0.41181684 -0.88020945 4.1351345e-10
0.002362537 -0.040159069 0.087308757 0.16417539 -0.39454603 -0.90409064 4.1351339e-10
0.0071523841 -0.039883208 0.088394888 0.2427512 -0.38488063 -0.8904711 4.1351336e-10
0.01202913 -0.037566897 0.089555189 0.59246194 -0.27243912 -0.75813305 4.1351306e-10
0.015985254 -0.035408545 0.090646558 0.69996542 -0.14173691 -0.69997078 4.1351278e-10
-0.015853725 -0.023096399 0.087889977 0.95530128 -0.0057416265 -0.29557815 4.1351364e-10
-0.012660713 -0.024817407 0.086069517 0.38975519 0.43267277 0.81294841 4.135137e-10
-0.0074155009 -0.024805749 0.084299169 -0.061346509 0.28307313 0.95713437 4.135132e-10
-0.0021640449 -0.024935884 0.084081672 -0.080715671 0.23798604 0.96790892 4.1351311e-10
0.0023147578 -0.025918355 0.084151894 0.072403401 0.12854926 0.98905653 4.1351278e-10
0.0072568171 -0.024782512 0.084580466 0.091502257 0.17296258 0.98066884 4.1351328e-10
0.012768681 -0.024743428 0.085902333 -0.18399443 0.36678547 0.91192895 4.1351358e-10
0.016222375 -0.023039537 0.088312432 -0.98312324 0.056513142 -0.17399716 4.1351372e-10
-0.015875148 -0.0075372332 0.086032815 0.98635918 1.0835072e-08 -0.1646073 4.1351395e-10
-0.013307882 -0.0089584077 0.084655389 0.94191879 0.31187305 0.12459639 4.1351358e-10
-0.0075461981 -0.01285761 0.082282007 0 0.93040836 0.36652452 4.1351278e-10
-0.0024391287 -0.012843714 0.082035527 0 0.94568658 0.32507977 4.1351278e-10
0.0021909531 -0.01301787 0.082099102 0 0.91755563 0.39760745 4.1351278e-10
0.0070109759 -0.013003146 0.082280762 0 0.91137064 0.41158673 4.1351278e-10
0.013288422 -0.0097012818 0.083828419 -0.83892852 0.51188856 0.18484865 4.1351336e-10
0.016250679 -0.0074359286 0.085877784 -0.9936465 0.005343467 -0.11241959 4.1351403e-10
-0.015925165 0.0079821954 0.085762501 -0.98743528 0.020769538 -0.15665343 4.1351397e-10
-0.01382909 0.0079511115 0.085610986 -0.99995756 0 -0.0092178658 4.1351342e-10
0.014326324 0.0080998102 0.084550701 1 0 0 4.1351278e-10
0.01622368 0.008045028 0.085570782 0.99468821 0 -0.10293403 4.1351403e-10
-0.016497578 0.023610663 0.08692462 0.82939529 -0.18039624 0.52873504 4.13514e-10
-0.012902331 0.024477391 0.083634749 -0.62847418 0.40765893 -0.66244572 4.1351333e-10
-0.0068586306 0.02745246 0.081858434 -0.65053266 0.48285198 -0.58622617 4.1351278e-10
-0.002580126 0.0296218 0.081490025 0 0.61002946 -0.79237866 4.1351278e-10
0.0022506178 0.02969216 0.08151301 0 0.61479115 -0.78868991 4.1351278e-10
0.0075403424 0.028148497 0.082072683 0.62849283 0.34784985 -0.69569904 4.1351278e-10
0.013426544 0.024379566 0.084782138 0.81968856 0.30358836 -0.48574138 4.1351336e-10
0.016163532 0.023162749 0.085910626 0.99366206 0.060283359 -0.094876856 4.1351392e-10
-0.015766976 0.040102009 0.087549247 -0.99050307 -0.0011779271 -0.13748522 4.1351372e-10
-0.01262369 0.040984616 0.085972041 -0.41099742 0.4240135 -0.8070277 4.1351381e-10
-0.0072251498 0.040897589 0.084461898 0.019266503 0.31695932 -0.94824338 4.135132e-10
-0.0024651706 0.040442869 0.084266298 0.078198604 0.18422838 -0.9797678 4.1351311e-10
0.0022735531 0.040750407 0.084368348 -0.048798546 0.12981108 -0.99033725 4.1351322e-10
0.0074470746 0.040431567 0.084443241 -0.030807462 0.1635109 -0.98606038 4.1351328e-10
0.01283018 0.041271769 0.086053029 0.39238432 0.28500718 -0.87453157 4.1351358e-10
0.016033813 0.040375147 0.087615892 0.95987612 0.1671977 -0.22512831 4.1351383e-10
-0.015807625 0.054339539 0.090942025 0.70474279 -0.082246833 0.70467943 4.1351278e-10
-0.012107831 0.056340795 0.088949941 0.65613413 -0.13000989 0.74336094 4.1351353e-10
-0.0075176693 0.056503393 0.086942956 0.2654385 -0.13405783 0.95476228 4.1351333e-10
-0.0024633971 0.056596123 0.085689947 0.25651518 -0.13169052 0.9575268 4.1351339e-10
0.0024540445 0.057149313 0.085844085 -0.20896572 -0.14155683 0.96762341 4.1351331e-10
0.0071483874 0.056594897 0.087043025 -0.25632593 -0.13704209 0.95682627 4.1351328e-10
0.012080452 0.056368519 0.089090176 -0.59918892 -0.13503785 0.78913713 4.1351356e-10
0.016031079 0.054881133 0.090746969 -0.70376354 -0.097752504 0.70367694 4.1351278e-10
-0.015102506 0.065638781 0.091589957 0.68739885 -0.23472725 0.68730336 4.1351278e-10
-0.011238097 0.067228109 0.090448104 0.6340791 -0.33710617 0.69591892 4.1351278e-10
-0.0072270222 0.06954515 0.089912415 0.28182945 -0.39744741 0.87327421 4.1351281e-10
-0.0024102002 0.071025074 0.089299954 0.22514196 -0.45216164 0.86305332 4.1351328e-10
0.0022717523 0.071309879 0.089433819 -0.19653685 -0.46044886 0.8656559 4.1351325e-10
0.0071765496 0.06945049 0.089819722 -0.25471672 -0.40541276 0.87792939 4.1351295e-10
0.011546926 0.067527644 0.090587847 -0.64072865 -0.34605974 0.68535358 4.1351278e-10
0.014852464 0.065149724 0.090801656 -0.68739885 -0.23472725 0.68730336 4.1351278e-10
-0.0051853508 0.089038372 0.090985261 -0.25869864 0.024689212 -0.96564251 4.1351278e-10
-0.0016099357 0.087949269 0.090905957 -0.2586374 0.02913652 -0.96553493 4.1351278e-10
0.0022762583 0.088091724 0.090994231 0.13272327 0.032211114 -0.99062955 4.1351278e-10
0.0068578687 0.087844282 0.091641225 0.25868195 0.021943592 -0.96571332 4.1351278e-10
-0.0013955117 0.098004058 0.091047548 -0.24884497 0.2753275 -0.92858547 4.1351278e-10
0.0021800697 0.0985341 0.091369048 0.13846126 0.3698312 -0.91872376 4.1351278e-10
-0.011356466 -0.04933076 0.1020101 -0.57828486 -0.78613514 -0.21812433 4.1351278e-10
-0.0070211119 -0.050429683 0.099973418 -0.35642859 -0.88022041 -0.31332207 4.1351289e-10
-0.0024410514 -0.051046237 0.099120833 -0.1318783 -0.92166787 -0.36487871 4.1351311e-10
0.0023531371 -0.051104818 0.099225864 0.083529629 -0.92984843 -0.35833606 4.1351314e-10
0.0071365559 -0.050465424 0.10019433 0.33174568 -0.88896388 -0.315734 4.1351292e-10
0.011379781 -0.049329478 0.10183308 0.543495 -0.80424351 -0.24042776 4.1351278e-10
-0.020818397 -0.036012717 0.10133681 -0.94828385 -0.18151155 -0.26040602 4.13513e-10
-0.01725574 -0.040070936 0.098466761 -0.82865846 -0.39260817 -0.39897856 4.1351395e-10
-0.012503366 -0.044808295 0.09685456 -0.61260217 -0.62949574 -0.47796845 4.1351336e-10
-0.0076151676 -0.046172351 0.094166249 -0.39882788 -0.7174077 -0.57119387 4.1351278e-10
-0.0020219609 -0.047427475 0.093356751 -0.16945182 -0.75604123 -0.6322087 4.1351278e-10
0.002641269 -0.047316559 0.093358606 0.085664116 -0.76431119 -0.63913226 4.1351278e-10
0.0077825538 -0.046569876 0.094352789 0.33961985 -0.74062586 -0.5797686 4.1351278e-10
0.012665261 -0.04475271 0.096668124 0.59651119 -0.63514972 -0.49067232 4.1351336e-10
0.01724688 -0.040548667 0.09851186 0.81216615 -0.42997 -0.39434996 4.1351389e-10
0.020962067 -0.036170259 0.10090997 0.94323999 -0.18745553 -0.27415097 4.1351322e-10
-0.021235939 -0.024184516 0.10065077 -0.95891899 -0.0082453648 -0.28356016 4.1351397e-10
-0.018023964 -0.023972655 0.095708236 -0.8509472 -0.0087609841 -0.52517807 4.1351367e-10
-0.014679417 -0.018312186 0.09226191 -0.70710778 0 -0.70710588 4.1351278e-10
0.014384352 -0.029108584 0.092396677 0.70660901 -0.037504531 -0.70660961 4.1351278e-10
0.017991204 -0.024675898 0.095224679 0.82608408 -0.0094927372 -0.56346691 4.1351345e-10
0.021349253 -0.023961477 0.10026249 0.95737749 -0.0074959374 -0.28874233 4.13514e-10
-0.021188924 -0.0082972674 0.10049704 -0.96024048 0 -0.27917403 4.1351389e-10
-0.018178757 -0.0076578716 0.09599898 -0.85360092 2.9416041e-08 -0.52092755 4.135135e-10
-0.014524807 -0.0085519105 0.0926603 -0.7071076 1.2195268e-08 -0.70710593 4.1351278e-10
0.01453808 -0.0063438714 0.093242414 0.70719284 0 -0.7070207 4.1351278e-10
0.018103303 -0.0080511346 0.095490776 0.83104354 0 -0.55620736 4.1351339e-10
0.021385211 -0.0079586953 0.10027866 0.95959473 0 -0.28138578 4.1351397e-10
-0.021230068 0.0080245072 0.10080843 -0.96184397 0 -0.27359867 4.1351389e-10
-0.018164024 0.008215067 0.096199438 -0.84960181 9.6055581e-09 -0.52742463 4.1351361e-10
-0.013934761 0.008321722 0.092550732 -0.86285669 0 -0.50544864 4.1351278e-10
0.014487366 0.0076870718 0.092551857 0.86289871 0 -0.50537676 4.1351278e-10
0.018091567 0.007877891 0.095381789 0.82244503 0 -0.56884462 4.1351347e-10
0.021317057 0.0082432283 0.10002009 0.95698643 0 -0.29013288 4.1351397e-10
0.024587005 0.0022179484 0.10488415 0.96591353 0 -0.25886494 4.1351278e-10
-0.021185167 0.024194291 0.10100547 -0.96525735 0 -0.26130092 4.1351389e-10
-0.01813389 0.024280634 0.095919296 -0.77935117 -0.012597988 -0.62646067 4.1351364e-10
0.014577925 0.026465714 0.092669941 0.70719284 0 -0.7070207 4.1351278e-10
0.018112229 0.024337675 0.095355667 0.82950413 0 -0.55850047 4.1351353e-10
0.021390522 0.02397031 0.10043693 0.95833302 0 -0.28565338 4.1351397e-10
0.024534762 0.027959287 0.10416347 0.96591353 0 -0.25886494 4.1351278e-10
-0.021218294 0.040175766 0.10091163 -0.96205705 -0.0047901771 -0.27280617 4.1351389e-10
-0.018225316 0.040126771 0.09624321 -0.84961551 -0.0038464242 -0.52738857 4.1351364e-10
-0.014507171 0.040615499 0.093169324 -0.70710737 -1.0975741e-07 -0.70710629 4.1351278e-10
0.014550954 0.041390315 0.09245348 0.98669869 -0.0058030444 0.16245617 4.1351278e-10
0.018070403 0.040218811 0.095193684 0.8205331 -0.0049018255 -0.57157815 4.1351347e-10
0.021230834 0.040159769 0.10037716 0.9588052 -0.0049495967 -0.28402117 4.1351395e-10
0.024731904 0.033300519 0.10478055 0.96591353 0 -0.25886494 4.1351278e-10
-0.020992288 0.054973565 0.10101884 0.9574762 -0.10065182 0.27038607 4.135137e-10
-0.017806901 0.056874428 0.097004637 0.85909712 -0.14593475 0.49056628 4.1351392e-10
-0.01305565 0.060160935 0.093118586 0.69207639 -0.2053711 0.69199198 4.1351278e-10
0.013745312 0.059291735 0.092709549 -0.69564742 -0.17965403 0.69555664 4.1351278e-10
0.017860228 0.057477243 0.096368693 -0.83538193 -0.16122904 0.52549243 4.1351383e-10
0.021085382 0.055376641 0.10058317 -0.9549011 -0.10877077 0.27628386 4.1351383e-10
-0.020284504 0.065672681 0.10310312 0.92948037 -0.27205041 0.24910802 4.1351278e-10
-0.016656935 0.069388933 0.10034959 0.85715282 -0.40267038 0.32116282 4.1351378e-10
-0.012510736 0.073603667 0.097644247 0.48846948 -0.66374594 0.56642646 4.1351386e-10
-0.007770895 0.076170757 0.094398245 -0.51987976 -0.6165936 -0.59121686 4.1351278e-10
-0.0027966192 0.076761037 0.09327817 -0.20942733 -0.58725923 -0.78183556 4.1351278e-10
0.0025809074 0.077446409 0.093178637 0.084071927 -0.23575804 -0.96816838 4.1351278e-10
0.0077731777 0.07631284 0.094108023 0.49242929 -0.58568156 -0.64380938 4.1351278e-10
0.012612397 0.073898539 0.097378328 -0.32215706 -0.76154053 0.56237966 4.1351378e-10
0.016773146 0.070046954 0.10014649 -0.83577639 -0.42980444 0.34168112 4.1351383e-10
0.020448087 0.065999679 0.10301736 -0.92718732 -0.28039187 0.24840286 4.1351278e-10
-0.015234395 0.087611444 0.10306795 -0.96564263 0.02366293 -0.25879404 4.1351278e-10
-0.012332071 0.088769086 0.10003076 -0.88217211 0.039279941 -0.4692862 4.1351403e-10
-0.0075605381 0.088448986 0.094772071 -0.5710454 0.03480212 -0.82018042 4.1351375e-10
-0.0025325727 0.088841945 0.093575813 -0.25857499 0.037647288 -0.96525729 4.1351286e-10
0.0021966423 0.089072563 0.093176216 0.17024757 0.042047318 -0.98450381 4.1351295e-10
0.0074813529 0.088796996 0.094701007 0.53112024 0.037078828 -0.84648478 4.1351367e-10
0.012450261 0.0887108 0.099891819 0.86050105 0.03762484 -0.50805748 4.1351403e-10
0.015533536 0.088227652 0.10248666 0.95893216 0.036938161 -0.28121987 4.1351278e-10
-0.015228152 0.097760499 0.10410118 -0.96121299 0.098500445 -0.25761861 4.1351278e-10
-0.011701467 0.099583216 0.10151347 -0.80106181 0.490814 -0.34263912 4.1351295e-10
-0.0073250947 0.10186091 0.099338658 -0.53995591 0.68311471 -0.49173367 4.135137e-10
-0.0025107367 0.10330416 0.098236926 -0.20623465 0.77522141 -0.59707534 4.1351364e-10
0.0022401223 0.10342461 0.098173477 0.1196183 0.77911878 -0.61535794 4.1351372e-10
0.0072544129 0.10214202 0.098952763 0.47938478 0.70648026 -0.52064943 4.135137e-10
0.01170696 0.10010764 0.10125728 0.76301897 0.53284806 -0.36588937 4.1351328e-10
0.015111351 0.098449849 0.10318257 0.86461335 0.44587162 -0.23160802 4.1351278e-10
-0.01499635 -0.048291564 0.10672286 -0.6322245 -0.756064 -0.16929129 4.1351278e-10
-0.011302657 -0.049744364 0.11004075 -0.56736302 -0.8075484 0.16113576 4.1351278e-10
-0.0071832766 -0.05083257 0.1112168 -0.38324982 -0.89661419 0.22181651 4.1351328e-10
-0.0025331341 -0.051752292 0.11212102 -0.14070943 -0.95450109 0.26292297 4.1351325e-10
0.0024138903 -0.051829305 0.11190552 0.093331538 -0.96226186 0.2556195 4.1351345e-10
0.0073554479 -0.050766964 0.11163119 0.35108131 -0.90673906 0.23359406 4.1351325e-10
0.011620269 -0.04953165 0.10965621 0.53769898 -0.826747 0.16543607 4.1351278e-10
0.015582591 -0.048483312 0.10681856 0.63221258 -0.75604975 0.16939919 4.1351278e-10
-0.020959055 -0.036163144 0.11034863 -0.96259135 -0.19826908 0.18468148 4.1351342e-10
-0.017486559 -0.041063771 0.11243696 -0.85830534 -0.44395405 0.25732616 4.1351395e-10
-0.012944495 -0.046272192 0.11357687 -0.60507488 -0.71438611 0.35147813 4.1351306e-10
-0.0079043657 -0.047436144 0.11669763 -0.41725785 -0.76217604 0.49495819 4.1351278e-10
0.0085714832 -0.047780905 0.11648556 0.46281761 -0.75604224 0.46281746 4.1351278e-10
0.012775321 -0.046577398 0.11408945 0.57816112 -0.72747302 0.36947623 4.1351278e-10
0.0173376 -0.04208871 0.11233341 0.82550442 -0.50388259 0.25425345 4.1351392e-10
0.021216394 -0.036517266 0.11039186 0.96453005 -0.21160755 0.15781049 4.135137e-10
-0.021313975 -0.024199566 0.11094248 -0.97583497 -0.0082375808 0.21835338 4.1351408e-10
-0.018650645 -0.024172701 0.11542809 -0.91933423 -0.0078554917 0.39339897 4.1351278e-10
0.018882386 -0.023816468 0.11641461 0.92686772 -0.007522101 0.37531269 4.1351278e-10
0.021733472 -0.02416021 0.11124957 0.9830693 -0.0080578774 0.18305691 4.1351367e-10
0.024687894 -0.021392047 0.10566908 0.96591353 0 -0.25886494 4.1351278e-10
-0.021374855 -0.0080998316 0.1107605 -0.98134047 0 0.19227839 4.1351408e-10
-0.018642848 -0.0079689957 0.11537497 -0.90406513 0 0.42739478 4.1351286e-10
0.018804379 -0.0078539262 0.11655264 0.90705907 0 0.4210034 4.1351278e-10
0.021701088 -0.0080242837 0.11113563 0.98127592 0 0.192607 4.1351411e-10
0.024670502 -0.0090812594 0.10693558 0.98441136 0 -0.17588159 4.1351278e-10
-0.02132334 0.0078537418 0.11071394 -0.98288304 0 0.1842307 4.1351408e-10
-0.018518027 0.008221156 0.11547831 -0.91161656 0 0.41104174 4.1351289e-10
0.018970439 0.0077514951 0.11619741 0.92938256 0 0.36911792 4.1351278e-10
0.021736274 0.0079444135 0.11108349 0.98430824 0 0.17645764 4.1351395e-10
0.024782747 0.0062062442 0.10640784 0.99603355 0 -0.088979095 4.1351278e-10
-0.021348171 0.024191786 0.11098731 -0.98035508 0 0.19724096 4.1351406e-10
-0.018658729 0.024041492 0.11520836 -0.91757578 0 0.39756095 4.1351311e-10
0.019069262 0.024021545 0.11582898 0.93869674 0 0.34474418 4.1351278e-10
0.021687238 0.024024775 0.11121923 0.98062176 0 0.1959109 4.1351408e-10
0.024969548 0.017307937 0.10718614 0.96591353 0 -0.25886494 4.1351278e-10
-0.021261627 0.040254354 0.11090603 -0.97926033 -0.0050440133 0.20254311 4.1351408e-10
-0.018562555 0.040193122 0.11549645 -0.90970773 -0.0051194383 0.41521761 4.1351292e-10
0.018915785 0.0407166 0.1162712 0.92327029 -0.0074037113 0.38407961 4.1351278e-10
0.021688953 0.040160812 0.11112789 0.980744 -0.0048263962 0.19523813 4.1351383e-10
0.025037616 0.041611105 0.10574219 0.96591353 0 -0.25886494 4.1351278e-10
-0.021087075 0.055285878 0.11057283 0.97436047 -0.11377387 -0.19410618 4.1351395e-10
-0.01838059 0.058549598 0.11417498 0.9243136 -0.17667428 -0.33827591 4.1351364e-10
0.018561183 0.058785018 0.11496013 -0.91110319 -0.18277247 -0.36943907 4.1351328e-10
0.021394551 0.055545375 0.11057451 -0.9755646 -0.12080393 -0.18352161 4.1351406e-10
0.024628401 0.053126216 0.10863477 -0.96561134 -0.025267715 -0.25875917 4.1351278e-10
-0.020126224 0.065862104 0.10774068 0.96256942 -0.26711613 -0.04592444 4.1351278e-10
-0.016837858 0.06998916 0.11077409 0.8806355 -0.41984567 -0.21956934 4.1351389e-10
-0.012900794 0.0755632 0.11323939 -0.14490317 -0.95927733 -0.24246685 4.1351375e-10
-0.008452164 0.077134058 0.11728545 -0.63775545 -0.30304852 0.70811689 4.1351278e-10
0.0088959169 0.078187227 0.11736538 0.66866863 -0.086017281 0.73856837 4.1351278e-10
0.012934885 0.0760139 0.11372637 0.39591703 -0.91749799 -0.038040996 4.1351361e-10
0.016888367 0.070803389 0.11139993 -0.84763396 -0.45655382 -0.27032456 4.1351397e-10
0.020454174 0.067028917 0.10919692 -0.93377841 -0.33583647 -0.12357853 4.1351278e-10
-0.015471601 0.087502524 0.10766597 -0.99914247 0.02217444 0.034966193 4.1351278e-10
-0.01263852 0.088475347 0.11181773 -0.93019682 0.036277823 0.36526403 4.1351386e-10
-0.008312447 0.089600727 0.11710687 -0.65850288 0.04686033 0.75111794 4.1351278e-10
0.0090206442 0.088725962 0.11715233 0.70652986 0.040915459 0.70649946 4.1351278e-10
0.012749951 0.088889904 0.11260904 0.89093065 0.039615817 0.45240808 4.1351408e-10
0.015672587 0.087993555 0.10863655 0.98938829 0.026825489 0.14279751 4.1351308e-10
-0.015262634 0.097161911 0.10715292 -0.99337798 0.10179656 0.053268909 4.1351278e-10
-0.011812715 0.099809326 0.11001735 -0.83263898 0.50869548 0.21895513 4.1351347e-10
-0.0073827608 0.10270555 0.11237653 -0.54928201 0.74350786 0.38142535 4.1351381e-10
-0.0025833067 0.10498837 0.11247978 -0.19154958 0.83495158 0.51591146 4.1351356e-10
0.0023221949 0.1051109 0.1125934 0.16705069 0.77994251 0.60314482 4.1351361e-10
0.0073030381 0.1031809 0.11250743 0.47204828 0.78475332 0.40166241 4.1351378e-10
0.011861032 0.10043401 0.11018976 0.77767092 0.58606166 0.22750752 4.1351372e-10
0.015371508 0.098457851 0.10845086 0.89020795 0.44751197 0.085222721 4.1351278e-10
-0.0064381934 -0.048947446 0.11910404 -0.25626123 -0.7651 0.59072173 4.1351278e-10
-0.0022898139 -0.049172118 0.11971194 -0.16939342 -0.75606692 0.63219351 4.1351278e-10
0.0022849683 -0.049004842 0.11967411 0.081159383 -0.76461101 0.63936156 4.1351278e-10
0.0060710735 -0.048837971 0.11922874 0.16941546 -0.75606686 0.63218766 4.1351278e-10
-0.019832373 -0.034062862 0.11863965 -0.96526277 -0.037490927 0.25857726 4.1351278e-10
-0.016360313 -0.036418036 0.12034198 -0.69236755 -0.20286094 0.69244105 4.1351278e-10
-0.012066689 -0.0390542 0.12258743 -0.63416648 -0.34066269 0.69410491 4.1351367e-10
-0.0072806566 -0.040594876 0.12430748 -0.28305906 -0.40642434 0.86873281 4.1351364e-10
-0.0025218299 -0.040542845 0.12543349 -0.23513645 -0.4181082 0.87743747 4.1351367e-10
0.002496178 -0.040809292 0.12544973 0.15936345 -0.443064 0.88221174 4.1351375e-10
0.007442181 -0.040555507 0.12437026 0.26841044 -0.42368299 0.86512923 4.1351364e-10
0.012195438 -0.039158989 0.1227532 0.61276162 -0.3427183 0.71208668 4.1351367e-10
0.016634053 -0.036122177 0.12043179 0.69182354 -0.2067398 0.69183725 4.1351295e-10
0.020178994 -0.032879923 0.11886945 0.8174898 -0.038667366 0.57464367 4.1351278e-10
-0.020037984 -0.023498632 0.11862583 -0.89154351 -0.0038774153 0.45291847 4.1351278e-10
-0.016679281 -0.024061542 0.120767 -0.7070415 -0.0077695753 0.70712936 4.1351364e-10
-0.012474041 -0.024580818 0.12454297 -0.66046071 -0.008859789 0.75080836 4.1351375e-10
-0.0075997165 -0.024210773 0.12706695 -0.2588563 -0.0075678341 0.96588618 4.1351347e-10
-0.002571258 -0.023831466 0.1284754 -0.25885859 -0.0074554998 0.96588647 4.1351364e-10
0.0026096993 -0.024059927 0.12844108 0.17405929 -0.0075959591 0.98470587 4.1351364e-10
0.0074269548 -0.024425199 0.12723179 0.25885653 -0.0083701871 0.96587956 4.1351342e-10
0.012391045 -0.024072202 0.12516128 0.57773489 -0.0076369969 0.81618887 4.1351378e-10
0.016825253 -0.023737352 0.12119967 0.70709127 -0.0065893023 0.70709163 4.135137e-10
0.020564102 -0.024790049 0.11903699 0.82866818 -0.0081534972 0.5596807 4.1351278e-10
-0.02000767 -0.0079362756 0.11878236 -0.8874681 0 0.46086913 4.1351278e-10
-0.016697595 -0.0080438489 0.12075416 -0.70706254 0 0.70715106 4.1351361e-10
-0.012515192 -0.0079089357 0.12446696 -0.65836769 0 0.75269645 4.1351375e-10
-0.0075001866 -0.0079417462 0.12713429 -0.25886574 0 0.96591336 4.1351356e-10
-0.0027794393 -0.0077556255 0.12837754 -0.25886574 0 0.9659133 4.1351353e-10
0.0024099383 -0.0080957981 0.12840861 0.16651952 0 0.98603815 4.1351367e-10
0.0073233903 -0.0079502538 0.12728728 0.25886571 0 0.9659133 4.135135e-10
0.012253997 -0.0081858886 0.12520182 0.55999076 0 0.82849884 4.1351372e-10
0.016840721 -0.0080092428 0.12119428 0.70710653 0 0.70710695 4.1351372e-10
0.02019614 -0.0088192103 0.11906637 0.72467244 0 0.68909359 4.1351278e-10
-0.02021868 0.0081123887 0.11871644 -0.93172991 0 0.36315203 4.1351278e-10
-0.016829219 0.0082588866 0.12063184 -0.70706266 0 0.70715088 4.1351353e-10
-0.012338383 0.0080298698 0.12453655 -0.62631059 0 0.77957368 4.1351381e-10
-0.0071983361 0.0081453202 0.12712093 -0.25886574 0 0.96591336 4.1351339e-10
-0.0023337533 0.0081068575 0.1284679 -0.25886571 0 0.96591324 4.1351358e-10
0.0026437938 0.0081526693 0.12848246 0.16740596 0 0.98588806 4.1351358e-10
0.0075866673 0.0080993408 0.12717755 0.25886571 0 0.9659133 4.1351353e-10
0.012609945 0.0082873553 0.12485906 0.5975281 0 0.80184799 4.1351372e-10
0.016872669 0.0082692998 0.1212118 0.70710653 0 0.70710701 4.1351361e-10
0.020379171 0.0077043213 0.11911958 0.77913588 0 0.62685513 4.1351278e-10
-0.020190278 0.023768248 0.11845969 -0.96593517 0 0.2587845 4.1351278e-10
-0.016638743 0.024152098 0.12066692 -0.70706266 0 0.707151 4.1351356e-10
-0.01230799 0.024276121 0.12458172 -0.62314284 0 0.78210801 4.1351378e-10
-0.0073454189 0.024132963 0.12706138 -0.25886571 0 0.9659133 4.1351345e-10
-0.0024543891 0.024168039 0.12841672 -0.25886574 0 0.9659133 4.1351358e-10
0.0025700836 0.024181332 0.12836182 0.15493643 0 0.9879244 4.1351361e-10
0.0075361766 0.024175905 0.12720193 0.25886571 0 0.9659133 4.1351353e-10
0.012505132 0.023915071 0.1248893 0.5875929 0 0.80915666 4.1351375e-10
0.017029246 0.024282327 0.12104875 0.70710659 0 0.70710701 4.1351361e-10
0.020196583 0.023484292 0.11921696 0.72660953 0 0.6870507 4.1351278e-10
-0.020264262 0.040798474 0.11839493 -0.96592903 -0.0042219809 0.25877264 4.1351278e-10
-0.016668005 0.040095814 0.12070511 -0.70705473 -0.0048993975 0.70714188 4.1351356e-10
-0.012371645 0.0403523 0.12446813 -0.65430254 -0.0051417407 0.75621545 4.1351381e-10
-0.0072881617 0.040448815 0.12711821 -0.25886145 -0.0057356213 0.96589744 4.135135e-10
-0.002478173 0.039829627 0.12841767 -0.25886372 -0.0038813732 0.96590596 4.1351356e-10
0.0025745169 0.040404182 0.12833957 0.15384535 -0.0039389092 0.98808712 4.1351361e-10
0.0075318925 0.040334441 0.12714803 0.25886333 -0.0042959419 0.96590441 4.1351353e-10
0.012555663 0.040525474 0.12491539 0.60358495 -0.0066681015 0.79727077 4.1351375e-10
0.016890459 0.040064108 0.12100217 0.70709926 -0.0045253388 0.7070998 4.1351367e-10
0.020403 0.040659498 0.11906501 0.73883414 -0.0092824819 0.67382336 4.1351278e-10
-0.019724086 0.056370556 0.11934355 0.70101142 -0.13078737 -0.70105463 4.1351278e-10
-0.016569654 0.055296637 0.12019733 0.7028839 -0.10892 -0.70291573 4.1351339e-10
-0.012435141 0.056538515 0.12354386 0.67145449 -0.13265516 -0.72907579 4.1351381e-10
-0.0073832767 0.056388639 0.12647422 0.25666928 -0.12732771 -0.95807546 4.1351353e-10
-0.0026780004 0.056524809 0.12757379 0.25652033 -0.13237104 -0.95743161 4.1351358e-10
0.0022585334 0.056202609 0.12773669 -0.19281076 -0.13275552 -0.97221398 4.1351367e-10
0.0072679538 0.056896307 0.1265388 -0.2563571 -0.13664566 -0.95687455 4.1351353e-10
0.012353617 0.056546234 0.12423433 -0.62639624 -0.13105419 -0.76840907 4.1351381e-10
0.016815223 0.055682521 0.12036926 -0.702003 -0.11995842 -0.70199847 4.1351356e-10
0.020319272 0.053662535 0.11901777 -0.82528424 -0.065610543 -0.56089312 4.1351278e-10
-0.015762998 0.065926678 0.11960316 0.68738407 -0.23474467 -0.6873123 4.1351278e-10
-0.011772659 0.068630807 0.12070649 0.65458119 -0.37833771 -0.65451062 4.1351303e-10
-0.0073076845 0.071640551 0.12198236 0.29107493 -0.49592179 -0.81813014 4.1351353e-10
-0.0024338134 0.072743371 0.1230086 0.2068298 -0.6010682 -0.77197045 4.1351358e-10
0.0024339741 0.072436094 0.1232167 -0.17975831 -0.57491261 -0.79822457 4.1351367e-10
0.0074755759 0.072236776 0.12194671 -0.25677893 -0.55808359 -0.78905463 4.1351358e-10
0.011877568 0.068771318 0.12099146 -0.64989424 -0.38025463 -0.65806073 4.1351306e-10
0.016083343 0.066679291 0.11950231 -0.68047744 -0.27206191 -0.68039167 4.1351278e-10
-0.010257657 0.087739296 0.11901605 -0.7070117 0.016429693 0.70701104 4.1351278e-10
-0.0068819299 0.088393636 0.1196292 -0.49748912 0.034371614 0.86678898 4.1351328e-10
-0.0024927 0.088657588 0.12063956 -0.25869358 0.033953246 0.96536249 4.1351353e-10
0.0023123 0.088431492 0.12087882 0.15227869 0.034588739 0.98773217 4.1351367e-10
0.0070907651 0.088116653 0.11967195 0.41383722 0.03153979 0.90980434 4.1351345e-10
0.010319157 0.087523088 0.11936612 0.70703691 0.014097138 0.70703614 4.1351278e-10
-0.0067475638 0.097987838 0.11942852 -0.43376449 0.34212789 0.83354479 4.1351278e-10
-0.0023752642 0.099149451 0.11964536 -0.22859335 0.46869197 0.8532719 4.1351278e-10
0.0022004845 0.099301882 0.11983091 0.1115704 0.44544786 0.88832891 4.1351278e-10
0.0068168058 0.098361202 0.11937528 0.36414814 0.41261262 0.83495325 4.1351278e-10
