# .PCD v0.7 - Point Cloud Data file format
VERSION 0.7
FIELDS x y z normal_x normal_y normal_z curvature
SIZE 4 4 4 4 4 4 4
TYPE F F F F F F F
COUNT 1 1 1 1 1 1 1
WIDTH 542
HEIGHT 1
VIEWPOINT 0 0 0 1 0 0 0
POINTS 542
DATA ascii
-0.037685983 -0.055750269 -0.0011105867 -0.22808814 -0.036578983 -0.97295308 -1.5812596e+20
-0.030348234 -0.055016696 -0.00094821909 0 -0.017103009 -0.99985373 -1.5812594e+20
-0.021966655 -0.055243965 -0.0011686545 0 -0.033385653 -0.99944252 -1.5812594e+20
-0.013279288 -0.055156063 -0.0010118372 0 -0.022450684 -0.99974799 -1.5812594e+20
-0.0042228368 -0.055074014 -0.00088505121 0 -0.024410937 -0.99970198 -1.5812594e+20
0.0049856231 -0.055198893 -0.0010029828 0 -0.038907513 -0.99924278 -1.5812592e+20
0.01383559 -0.05530436 -0.0011512449 0 -0.017940655 -0.99983901 -1.5812594e+20
0.021393849 -0.055158585 -0.0010013325 0 -0.027401408 -0.99962455 -1.5812594e+20
0.029908866 -0.055201363 -0.00096124009 0 -0.034785941 -0.99939477 -1.5812594e+20
0.036978524 -0.055211578 -0.00078586675 0.36210397 -0.033644352 -0.93153036 -1.5812597e+20
-0.037691411 -0.035495549 -0.0012303413 -0.18997154 0 -0.98178959 -1.5812594e+20
-0.030231992 -0.035277326 -0.00082888472 0 0 -1 -1.5812592e+20
-0.022023162 -0.035712585 -0.0010215718 0 0 -1 -1.5812592e+20
-0.013415741 -0.035507265 -0.00092050142 0 0 -1 -1.5812592e+20
-0.004412394 -0.035750162 -0.00087092287 0 0 -1 -1.5812592e+20
0.0043305689 -0.035165399 -0.00091084139 0 0 -1 -1.5812592e+20
0.013190088 -0.035613276 -0.0010138373 0 0 -1 -1.5812592e+20
0.021603603 -0.035705797 -0.00083408534 0 0 -1 -1.5812592e+20
0.030990576 -0.03552882 -0.00095892954 0 0 -1 -1.5812592e+20
0.037365265 -0.03626316 -0.00068448065 0.48955455 0 -0.87197262 -1.5812596e+20
-0.037959199 -0.011722035 -0.0010620615 -0.21288189 0 -0.97707796 -1.5812594e+20
-0.030268406 -0.012039802 -0.00085429114 0 0 -1 -1.5812592e+20
-0.021994993 -0.011501856 -0.0010415397 0 0 -1 -1.5812592e+20
-0.013120497 -0.012118793 -0.00099081104 0 0 -1 -1.5812592e+20
-0.0041006748 -0.011519965 -0.00087184343 0 0 -1 -1.5812592e+20
0.0046532364 -0.011439627 -0.00094372628 0 0 -1 -1.5812592e+20
0.013436887 -0.012202097 -0.0010655714 0 0 -1 -1.5812592e+20
0.02173527 -0.012069798 -0.00087541528 0 0 -1 -1.5812592e+20
0.030767962 -0.011841209 -0.00094611832 0 0 -1 -1.5812592e+20
0.037141509 -0.011455541 -0.00088315405 0.4070687 0 -0.91339755 -1.5812596e+20
-0.038156979 0.01119701 -0.0011111771 -0.28588846 0 -0.95826298 -1.5812594e+20
-0.030502586 0.010913445 -0.00084747095 0 0 -1 -1.5812592e+20
-0.022172164 0.011312309 -0.0010789481 0 0 -1 -1.5812592e+20
-0.013269537 0.011221386 -0.00092869869 0 0 -1 -1.5812592e+20
-0.0044716662 0.011309654 -0.00079871016 0 0 -1 -1.5812592e+20
0.0042256005 0.011235622 -0.00098218548 0 0 -1 -1.5812592e+20
0.01310483 0.011568421 -0.0010879624 0 0 -1 -1.5812592e+20
0.021754708 0.010787386 -0.00079872087 0 0 -1 -1.5812592e+20
0.030774245 0.011421742 -0.00095979223 0 0 -1 -1.5812592e+20
0.037321296 0.0097198887 -0.00068332971 0.46094096 0 -0.88743085 -1.5812596e+20
-0.03786315 0.035324764 -0.0011518337 -0.21884635 0 -0.97575939 -1.5812594e+20
-0.030328106 0.034843698 -0.00083325582 0 0 -1 -1.5812592e+20
-0.022020033 0.035316162 -0.0010403331 0 0 -1 -1.5812592e+20
-0.013126282 0.03465651 -0.00092730112 0 0 -1 -1.5812592e+20
-0.0043491721 0.035183337 -0.0007946947 0 0 -1 -1.5812592e+20
0.0045161103 0.035077378 -0.00092921959 0 0 -1 -1.5812592e+20
0.013488812 0.034844119 -0.0010363611 0 0 -1 -1.5812592e+20
0.02160996 0.034257557 -0.00072324026 0 0 -1 -1.5812592e+20
0.030553728 0.035007704 -0.00095815083 0 0 -1 -1.5812592e+20
0.037275683 0.035363246 -0.00076070667 0.44779652 0 -0.89413548 -1.5812596e+20
-0.037958886 0.054558042 -0.001227514 -0.21660374 0.09566386 -0.97156125 -1.5812596e+20
-0.030303989 0.054379053 -0.00084758393 -0.011157146 0.065275349 -0.99780488 -1.5812594e+20
-0.021925269 0.058904916 -0.0010094887 0 0 -1 -1.5812592e+20
-0.013179358 0.059325378 -0.0010034953 0 0 -1 -1.5812592e+20
-0.0042361389 0.058636062 -0.00084514939 0 0 -1 -1.5812592e+20
0.0045293667 0.05868344 -0.00091601186 0 0 -1 -1.5812592e+20
0.013432981 0.059163541 -0.0010827096 0 0 -1 -1.5812592e+20
0.021953953 0.058974016 -0.00085241947 0.040236238 0.0042605954 -0.99918109 -1.5812592e+20
0.030604454 0.0554097 -0.00094492472 0.019691842 0.072038621 -0.99720746 -1.5812594e+20
0.037118848 0.054605857 -0.00090253004 0.41204762 0.060673222 -0.90914005 -1.5812601e+20
-0.021986356 0.073914565 -0.0011453418 0 0.49087286 -0.87123126 -1.5812601e+20
-0.014028127 0.073274463 -0.00077259389 0 0.43429181 -0.90077227 -1.5812601e+20
-0.0045429189 0.073445588 -0.00061261951 0 0.45403481 -0.89098394 -1.5812601e+20
0.0041176337 0.073285855 -0.0010890514 0 0.4192045 -0.90789181 -1.5812601e+20
0.013199177 0.073289283 -0.0011495569 0 0.40403914 -0.91474169 -1.5812601e+20
0.021722944 0.073583357 -0.00074932782 0.1689297 0.43743119 -0.88324219 -1.5812601e+20
-0.044180654 -0.055797279 0.014937275 -1 0 0 -1.5812601e+20
-0.039530344 -0.057256628 0.013297849 -0.97486454 -0.20190348 -0.094202861 -1.581259e+20
-0.030406781 -0.06301266 0.012411981 0 -0.96849984 -0.24901412 -1.581259e+20
-0.021662882 -0.062999547 0.011778827 0 -0.9613747 -0.27524292 -1.581259e+20
-0.013234101 -0.062916957 0.011933223 0 -0.9614529 -0.27496958 -1.581259e+20
-0.0046836752 -0.062659487 0.012027067 0 -0.94143206 -0.33720285 -1.581259e+20
0.0043321913 -0.062700562 0.011665695 0 -0.95343798 -0.30158937 -1.581259e+20
0.013044784 -0.062929831 0.012489603 0 -0.96588624 -0.25896671 -1.581259e+20
0.021752296 -0.062637351 0.011589349 0 -0.9331432 -0.35950494 -1.581259e+20
0.030667886 -0.062414669 0.011888007 0.0082692672 -0.9570775 -0.2897141 -1.581259e+20
0.038872506 -0.056806657 0.014086971 0.99121511 -0.12541422 -0.041999217 -1.581259e+20
-0.044307426 -0.036598317 0.015219897 -1 0 0 -1.5812601e+20
-0.039938506 -0.035843793 0.012646585 -0.99407959 0 -0.1086544 -1.581259e+20
-0.030349122 -0.035337333 0.0012399206 0 0 -1 -1.5812594e+20
-0.021297595 -0.035597596 0.0014142164 0 0 -1 -1.5812594e+20
-0.012728905 -0.035558689 0.0012690534 0 0 -1 -1.5812594e+20
-0.00400361 -0.034879688 0.0014053636 0 0 -1 -1.5812594e+20
0.0050378363 -0.035223648 0.0013175542 0 0 -1 -1.5812594e+20
0.013311664 -0.035555013 0.0012763854 0 0 -1 -1.5812594e+20
0.021825312 -0.035237972 0.0013720874 0 0 -1 -1.5812594e+20
0.030909603 -0.035380844 0.0023823369 0.062378287 0 -0.9980526 -1.5812592e+20
0.039106939 -0.035888478 0.01346257 0.99922961 0 -0.039245352 -1.581259e+20
-0.04436636 -0.012300685 0.012506979 -0.99990237 0 -0.013970637 -1.5812601e+20
-0.039822403 -0.01179211 0.012938729 -0.99779028 0 -0.066441916 -1.581259e+20
-0.030175772 -0.0113267 0.0012770616 0 0 -1 -1.5812594e+20
-0.021662438 -0.012691277 0.0014620661 0 0 -1 -1.5812594e+20
-0.013569394 -0.01203917 0.0011599507 0 0 -1 -1.5812594e+20
-0.0050781309 -0.011653945 0.001356382 0 0 -1 -1.5812594e+20
0.0047303285 -0.01166313 0.0014105147 0 0 -1 -1.5812594e+20
0.013023478 -0.012573692 0.0011892237 0 0 -1 -1.5812594e+20
0.021516871 -0.011617456 0.0013954458 0 0 -1 -1.5812594e+20
0.031147605 -0.011854461 0.0023280266 0.055470016 0 -0.99846029 -1.5812592e+20
0.039026409 -0.011953048 0.013947546 0.99977887 0 -0.021028634 -1.581259e+20
-0.044437084 0.012350873 0.015858805 -0.99984181 0 -0.017786417 -1.5812601e+20
-0.039859459 0.011854374 0.013160889 -0.99862874 0 -0.052349865 -1.581259e+20
-0.030863272 0.012591965 0.0011892742 0 0 -1 -1.5812594e+20
-0.021565346 0.011555343 0.0013325724 0 0 -1 -1.5812592e+20
-0.012821915 0.012449696 0.0013496472 0 0 -1 -1.5812594e+20
-0.004199822 0.01199218 0.0013846743 0 0 -1 -1.5812592e+20
0.00481648 0.012303066 0.0013929006 0 0 -1 -1.5812594e+20
0.01307325 0.011503951 0.0012324676 0 0 -1 -1.5812594e+20
0.021650493 0.011593363 0.0013218062 0 0 -1 -1.5812594e+20
0.030835208 0.011888635 0.0027392902 0.056513309 0 -0.99840182 -1.5812592e+20
0.039062593 0.012057383 0.014098185 0.99992454 0 -0.012284133 -1.581259e+20
-0.044479281 0.03568754 0.017274231 -1 0 0 -1.5812601e+20
-0.039777737 0.035456773 0.012718006 -0.99505919 0 -0.099283226 -1.581259e+20
-0.030617423 0.035623293 0.0012948114 0 0 -1 -1.5812594e+20
-0.021414094 0.035188619 0.0013590277 0 0 -1 -1.5812592e+20
-0.013192989 0.036342409 0.001205637 0 0 -1 -1.5812594e+20
-0.0047068764 0.036009781 0.0012768231 0 0 -1 -1.5812592e+20
0.004521945 0.035946093 0.0013367221 0 0 -1 -1.5812594e+20
0.012730508 0.035988864 0.0011919239 0 0 -1 -1.5812594e+20
0.021704396 0.035661951 0.001329664 0 0 -1 -1.5812592e+20
0.031156357 0.035495188 0.002246385 0.092198208 0 -0.99574065 -1.5812592e+20
0.038912863 0.035526711 0.013588313 0.99941492 0 -0.034203075 -1.581259e+20
-0.044473529 0.055726323 0.015846908 -0.99802774 0.062344007 -0.0073331967 -1.5812601e+20
-0.039478403 0.057483722 0.013113984 -0.91981298 0.37130651 -0.12678905 -1.581259e+20
-0.030133771 0.064068019 0.010733172 -0.60465026 0.6808514 -0.41332716 -1.581259e+20
-0.023148583 0.063198879 0.0052916924 -0.41541532 0.0054310444 -0.90961564 -1.5812592e+20
-0.013213134 0.059690692 0.0012663457 0 0 -1 -1.5812594e+20
-0.0046719168 0.058867041 0.0013221862 0 0 -1 -1.5812592e+20
0.0047226697 0.059498869 0.0013569792 0 0 -1 -1.5812592e+20
0.013108871 0.059206061 0.0012499167 0 0 -1 -1.5812594e+20
0.02226181 0.061907943 0.0040377253 0.32062802 0.031832036 -0.94667017 -1.5812592e+20
0.030524619 0.064629108 0.010913133 0.51443684 0.77391034 -0.36934736 -1.581259e+20
0.038570147 0.057799961 0.014275815 0.95793796 0.28328285 -0.045888342 -1.581259e+20
-0.02798222 0.075287484 0.01453367 -0.81780452 0.56894028 -0.086619027 -1.5812592e+20
-0.022660239 0.076368034 0.013716022 -0.13094911 0.97775584 -0.16384728 -1.581259e+20
-0.013133687 0.076818526 0.013135057 0 0.98213184 -0.18819463 -1.581259e+20
-0.0042998837 0.076857015 0.013138098 0 0.98344553 -0.18120398 -1.581259e+20
0.0046135229 0.07694032 0.013343545 0 0.98442423 -0.17580912 -1.581259e+20
0.013181983 0.076939903 0.013306555 0 0.98507464 -0.17212784 -1.581259e+20
0.022115599 0.07634975 0.014287555 0.21320622 0.96726656 -0.13761689 -1.581259e+20
0.027226118 0.074852958 0.014201251 0.89666492 0.44015345 -0.047507741 -1.5812594e+20
-0.044068869 -0.054958176 0.042433467 0.99965924 0 -0.026103355 -1.5812601e+20
-0.039488088 -0.057534508 0.040679481 0.96474808 0.24481186 -0.09658283 -1.581259e+20
-0.030280061 -0.063304119 0.042893425 -0.34815651 0.86885697 -0.35195833 -1.581259e+20
-0.021541499 -0.065425836 0.041913066 0 0.98369437 -0.17984815 -1.581259e+20
-0.013101489 -0.065442741 0.041449815 0 0.98496664 -0.17274497 -1.581259e+20
-0.004438058 -0.065489836 0.042077716 0 0.98340833 -0.18140572 -1.581259e+20
0.0044196937 -0.065461405 0.042130545 0 0.9791581 -0.20309964 -1.581259e+20
0.013096105 -0.065438338 0.04149266 0 0.98687714 -0.16147311 -1.581259e+20
0.021948878 -0.065287776 0.041874416 0.0020591775 0.98651612 -0.16365147 -1.581259e+20
0.030708136 -0.063488983 0.042309925 0.25568065 0.92894262 -0.2677553 -1.581259e+20
0.038836814 -0.056726091 0.040722471 -0.99184698 0.11809064 -0.047898181 -1.581259e+20
-0.044136856 -0.035545319 0.042205285 0.99940234 0 -0.034568485 -1.5812601e+20
-0.039883103 -0.035820208 0.041831296 0.99254298 -0.0035868033 -0.12184279 -1.581259e+20
-0.032122411 -0.043150704 0.052803215 -0.14277619 -0.14779209 -0.9786585 -1.5812601e+20
0.032919753 -0.037681494 0.051308703 -0.11846077 -0.12999579 -0.98441255 -1.5812597e+20
0.039122239 -0.035769708 0.041340414 -0.99745381 -0.00056747696 -0.071312971 -1.581259e+20
-0.044241704 -0.012142383 0.038852971 0.99992532 0 -0.012222484 -1.5812601e+20
-0.039920222 -0.01221721 0.041844312 0.98790091 0 -0.15508638 -1.581259e+20
0.033939883 -0.012613171 0.049524289 -0.31622776 0 -0.94868332 -1.5812601e+20
0.039024532 -0.011977763 0.041435115 -0.99754173 0 -0.070075363 -1.581259e+20
-0.044305999 0.011714838 0.041691449 0.999915 0 -0.01303823 -1.5812601e+20
-0.039862823 0.011979401 0.042132076 0.98808545 0 -0.15390599 -1.581259e+20
0.033614416 0.011461128 0.048413772 -0.58123821 0 -0.81373346 -1.5812601e+20
0.039068379 0.01197402 0.041685894 -0.99743456 0 -0.071585126 -1.581259e+20
-0.044280984 0.036880221 0.044142116 0.9987179 0 -0.050621599 -1.5812601e+20
-0.039843041 0.035740126 0.041474435 0.99430513 0.00064213655 -0.10656837 -1.581259e+20
0.03441551 0.037607148 0.045038585 -0.62469506 0 -0.78086877 -1.5812601e+20
0.039001971 0.035680968 0.041420914 -0.99742043 0 -0.071781062 -1.581259e+20
-0.044375774 0.055476952 0.042736784 0.99210221 -0.12115128 -0.032491453 -1.5812601e+20
-0.039497014 0.057663169 0.040647153 0.92183453 -0.37282422 -0.10593896 -1.581259e+20
-0.030295167 0.064494379 0.043056022 0.63810867 -0.70960772 -0.29878771 -1.581259e+20
-0.023411607 0.06493187 0.048509113 0.55687135 -0.0064035375 -0.83057415 -1.5812592e+20
-0.012821405 0.06220777 0.052617241 0 0 -1 -1.5812596e+20
-0.0044685886 0.063313693 0.052159969 0 0 -1 -1.5812594e+20
0.0044535883 0.062805459 0.052467886 0 0 -1 -1.5812596e+20
0.012935503 0.062912293 0.052316979 0 0 -1 -1.5812596e+20
0.022674231 0.064516656 0.048520032 -0.43204811 -0.079417527 -0.89834696 -1.5812592e+20
0.030458095 0.065993898 0.043591086 -0.48950449 -0.82516086 -0.28194833 -1.581259e+20
0.038525149 0.057947047 0.040954255 -0.95509458 -0.2799688 -0.097015604 -1.581259e+20
-0.028347004 0.074748829 0.040858999 0.86092621 -0.50219977 -0.0812499 -1.5812592e+20
-0.022597281 0.076410569 0.041209947 0.11557978 -0.98130262 -0.15390383 -1.581259e+20
-0.013047584 0.076945111 0.041603968 0 -0.98729622 -0.15889005 -1.581259e+20
-0.0041220402 0.076981582 0.041396745 0 -0.98946327 -0.14478403 -1.581259e+20
0.0043483856 0.077023208 0.041013874 0 -0.98815477 -0.15346053 -1.581259e+20
0.012682104 0.076930344 0.041857027 0 -0.98659462 -0.16319008 -1.581259e+20
0.022031108 0.076353773 0.041648827 -0.22589552 -0.96067977 -0.16144851 -1.581259e+20
0.027231459 0.074714415 0.041016683 -0.91658717 -0.38957199 -0.090008378 -1.5812594e+20
-0.038900156 -0.054931451 0.056861818 0.30882269 0 -0.95111972 -1.5812599e+20
-0.029583279 -0.056377437 0.062988892 -0.97450525 -0.14296074 0.17292096 -1.581259e+20
-0.021742161 -0.0590204 0.065670371 -0.045761243 -0.65817595 0.75147206 -1.581259e+20
-0.013464216 -0.058530904 0.063512638 0.31833237 -0.49392775 0.80913532 -1.581259e+20
-0.0042922455 -0.058794558 0.061251517 0 -0.61517757 0.78838867 -1.5812592e+20
0.0043486473 -0.059371766 0.06105037 0 -0.66729569 0.74479288 -1.5812592e+20
0.013177433 -0.058357429 0.064956345 -0.27985212 -0.50339139 0.81748384 -1.581259e+20
0.022123544 -0.058477521 0.065549925 0.19883987 -0.64421618 0.73854464 -1.581259e+20
0.029025413 -0.055936124 0.062226877 0.9955442 -0.056641497 -0.075390257 -1.581259e+20
0.036458652 -0.054338649 0.056219473 -0.22548328 0 -0.97424704 -1.5812601e+20
-0.037790854 -0.031416781 0.067942396 -0.96226633 -0.25740752 0.088232234 -1.581259e+20
-0.030958548 -0.038781799 0.070841156 -0.58818966 -0.75234425 0.29666659 -1.581259e+20
-0.02209508 -0.038136307 0.077051319 0.022857731 -0.68238449 0.73063606 -1.5812592e+20
-0.012989613 -0.040140349 0.074967116 0.035460003 -0.63495713 0.77173305 -1.581259e+20
-0.0043974277 -0.039713554 0.074493892 0 -0.63269013 0.774405 -1.581259e+20
0.0043928628 -0.040031809 0.07408049 0 -0.47289455 0.88111901 -1.581259e+20
0.012704735 -0.039340951 0.075489528 -0.030202728 -0.8240959 0.56564444 -1.5812592e+20
0.022087816 -0.039760686 0.074736886 0.11854248 -0.7671234 0.63045174 -1.581259e+20
0.031061171 -0.037129045 0.069462538 0.55287445 -0.78480446 0.28002083 -1.581259e+20
0.036962394 -0.03117267 0.067938484 0.99861336 -0.052615751 0.001745683 -1.581259e+20
-0.038178511 -0.011754465 0.069347441 -0.92139006 0.041984957 0.38636446 -1.581259e+20
-0.03365301 -0.014881757 0.079231597 -0.96005499 -0.03829829 0.27717787 -1.5812597e+20
0.033709366 -0.012123357 0.070768945 -0.99491137 -0.01758484 0.099208064 -1.581259e+20
0.037256576 -0.01178304 0.068617217 0.99994057 -0.0012332828 0.010835781 -1.581259e+20
-0.038036238 0.011515889 0.0685836 -0.96649784 0.059451342 0.24969488 -1.581259e+20
-0.031347241 0.014143413 0.08044564 -0.52351409 0.27442595 0.80661231 -1.5812592e+20
-0.021340718 0.016744005 0.080730833 -0.028417453 0.37666726 0.92591268 -1.5812596e+20
-0.013167104 0.018617073 0.080486462 0 0.43975577 0.89811742 -1.5812596e+20
-0.0045800046 0.019032104 0.080332339 0 0.45493841 0.89052284 -1.5812597e+20
0.0042143511 0.019698815 0.079986185 0 0.39097923 0.92039955 -1.5812599e+20
0.01267958 0.019856978 0.080097005 0 0.37815046 0.92574412 -1.5812599e+20
0.021816963 0.017716151 0.080659918 0 0.45946667 0.88819498 -1.5812597e+20
0.033052541 0.012903902 0.072187476 -0.82061779 0.1673018 0.54643989 -1.581259e+20
0.037095115 0.011808027 0.068476662 0.99791485 0.015928073 0.062548399 -1.581259e+20
-0.03765193 0.035398316 0.065552026 -0.9852109 0.04587571 0.16509055 -1.581259e+20
-0.031035017 0.036141962 0.075913392 -0.23377901 0.22981074 0.94474041 -1.581259e+20
-0.021939065 0.035596382 0.077145442 0 0.23398133 0.9722411 -1.5812592e+20
-0.013162144 0.03607633 0.077265009 0 0.23161963 0.97280639 -1.5812592e+20
-0.0040449947 0.036319569 0.077417456 0 0.2316197 0.97280633 -1.5812592e+20
0.0043490222 0.036328692 0.07745783 0 0.2338337 0.97227657 -1.5812592e+20
0.013320032 0.037153773 0.077532418 0 0.24047367 0.97065568 -1.5812592e+20
0.021807967 0.035754163 0.077968933 0 0.23161967 0.97280639 -1.5812592e+20
0.031879734 0.035333179 0.072208069 0.2762658 0.22894286 0.93341434 -1.581259e+20
0.036990874 0.034857135 0.065869942 0.99605864 0.023319598 0.085576162 -1.581259e+20
-0.037084848 0.051201183 0.063143916 -0.88148379 0.47127151 0.029824894 -1.5812592e+20
-0.030642804 0.053851224 0.066595957 -0.16123612 0.95166576 0.26141009 -1.581259e+20
-0.02139668 0.054584723 0.066894881 0 0.96236569 0.27175784 -1.581259e+20
-0.012854482 0.055527292 0.065898195 0 0.99183828 0.12750223 -1.581259e+20
-0.0043251966 0.054821536 0.066286676 0 0.97601253 0.21771422 -1.581259e+20
0.0043518948 0.055104516 0.066294238 0 0.97850418 0.20622656 -1.581259e+20
0.013091934 0.055411391 0.066332236 0 0.98562527 0.16894647 -1.581259e+20
0.022007555 0.055405993 0.066298045 -0.0076384065 0.98747909 0.15756491 -1.581259e+20
0.03057578 0.054064073 0.065171823 0.31492102 0.93732917 0.14912686 -1.581259e+20
0.036066126 0.051144648 0.064273633 0.90945196 0.41580623 0.0015585761 -1.5812592e+20
-0.022699783 0.073983908 0.056677181 0 -0.42510772 -0.90514272 -1.5812599e+20
-0.014068131 0.074176118 0.05639844 0 -0.47777024 -0.87848479 -1.5812601e+20
-0.0040288609 0.074549153 0.056155257 0 -0.50985301 -0.86026156 -1.5812601e+20
0.0045853443 0.073778674 0.056566641 0 -0.40807608 -0.91294789 -1.5812601e+20
0.012679413 0.073204882 0.056667447 0 -0.39252168 -0.91974276 -1.5812601e+20
0.02110124 0.074215539 0.056170646 -0.070614934 -0.52858919 -0.84593564 -1.5812601e+20
-0.037156131 -0.02690807 0.084239662 -0.75237352 -0.20829771 0.62493694 -1.5812599e+20
-0.030449217 -0.02899625 0.085750751 -0.34646797 -0.36268827 0.86511111 -1.5812597e+20
-0.02122028 -0.027672065 0.088796131 -0.22276704 -0.58277071 0.78150702 -1.5812594e+20
-0.01255169 -0.02637543 0.095267512 -0.22295447 -0.93748444 0.2672345 -1.581259e+20
-0.0040527191 -0.026604341 0.096139081 0 -0.97547936 0.22009096 -1.581259e+20
0.004574379 -0.026767796 0.095500238 0.010767104 -0.96858275 0.24845812 -1.581259e+20
0.012208345 -0.026807336 0.093754061 0.31373087 -0.89415157 0.31947753 -1.5812592e+20
0.021604987 -0.028533086 0.086222351 0.022915447 -0.44484529 0.89531416 -1.5812594e+20
0.029583527 -0.028739614 0.085442662 0.44175234 -0.3491312 0.82641536 -1.5812597e+20
-0.036893196 -0.012060979 0.085995466 -0.70214605 -0.020896807 0.71172631 -1.5812596e+20
-0.030207371 -0.012220452 0.086938776 -0.35044259 -0.033708561 0.9359774 -1.5812592e+20
-0.020614013 -0.011904022 0.097897992 -0.96334785 -0.091377825 0.25221232 -1.581259e+20
-0.015789248 -0.02046958 0.10218048 -0.78695869 -0.61515903 0.047700837 -1.5812596e+20
-0.0065100193 -0.023707211 0.10944414 0 -0.9954136 0.095665261 -1.5812599e+20
0.0082796952 -0.023674458 0.10891455 0.19517073 -0.97627103 0.093825541 -1.5812599e+20
0.015278637 -0.014673071 0.099906132 0.94943154 -0.28952205 0.12147752 -1.581259e+20
0.020137053 -0.011957195 0.097823054 0.93151855 -0.069243081 0.35704133 -1.581259e+20
0.030373434 -0.012050766 0.08772511 0.46377042 -0.024446169 0.88561809 -1.581259e+20
0.036441848 -0.010659373 0.085031942 0.87522328 0.0013778234 0.48371717 -1.5812596e+20
-0.03662559 0.0057690018 0.085369803 -0.60057443 0.1851991 0.77782494 -1.5812601e+20
-0.030067369 0.0085121589 0.085218489 -0.23340113 0.25417235 0.9385736 -1.5812596e+20
-0.020387035 0.0079930406 0.098011874 -0.94800788 0.28787142 0.1356872 -1.581259e+20
-0.01352144 0.015944179 0.098013669 -0.36201251 0.92257273 -0.133441 -1.581259e+20
-0.004046578 0.017669272 0.09793333 0 0.98566008 -0.1687431 -1.581259e+20
0.0048349826 0.017803298 0.098091193 0.0021049215 0.99058378 -0.13689148 -1.581259e+20
0.014032586 0.013035152 0.098238714 0.70569438 0.70817047 -0.02213642 -1.581259e+20
0.020155709 0.0084801493 0.096108802 0.87241292 0.24854594 0.42085692 -1.581259e+20
0.02997154 0.0084148673 0.086001478 0.3576887 0.23415154 0.90400881 -1.5812592e+20
0.035908837 0.0059677912 0.084707662 0.6867184 0.16837201 0.70715535 -1.5812601e+20
-0.029042184 0.024115564 0.083709776 0 0.23161964 0.97280645 -1.5812599e+20
-0.020673931 0.023997758 0.083693802 0 0.23161964 0.97280645 -1.5812599e+20
-0.012500226 0.023882695 0.083678246 0 0.23161964 0.97280645 -1.5812599e+20
-0.0045146942 0.023770276 0.083662987 0 0.23161964 0.97280645 -1.5812599e+20
0.0050276518 0.023902178 0.083494857 0 0.23161964 0.97280645 -1.5812599e+20
0.017909914 0.025151551 0.083845794 0 0.23161964 0.97280645 -1.5812599e+20
-0.017734982 -0.024624428 0.11635137 -0.55570179 -0.82595307 0.094853021 -1.5812599e+20
-0.011716936 -0.024633467 0.11732845 -0.15017244 -0.98155481 0.11831494 -1.5812597e+20
-0.0036145668 -0.024627361 0.11706922 0 -0.99288201 0.11910192 -1.5812596e+20
0.0046190768 -0.024540428 0.11703414 0.011489837 -0.99289763 0.11841574 -1.5812596e+20
0.011501901 -0.024029037 0.11490925 0.38277799 -0.91773582 0.10602818 -1.5812601e+20
-0.020103557 -0.01085281 0.12504378 -0.99473757 -0.10132256 0.01519304 -1.581259e+20
-0.01403337 -0.018896423 0.12526996 -0.60371137 -0.78856486 0.11703888 -1.581259e+20
-0.0043260525 -0.022269333 0.12789227 0 -0.98827404 0.1526906 -1.5812592e+20
0.0046949452 -0.022151258 0.12855248 0.019549886 -0.98759568 0.15579677 -1.5812592e+20
0.01438044 -0.015464434 0.12538561 0.86532897 -0.49589953 0.07272847 -1.581259e+20
0.019207453 -0.0098700933 0.12476362 0.99831873 -0.057315744 0.0086393934 -1.581259e+20
-0.02013558 0.010214942 0.12628797 -0.9843846 0.17332748 -0.030733164 -1.581259e+20
-0.014253907 0.018820355 0.12315914 -0.52638531 0.83638757 -0.15288696 -1.581259e+20
-0.0038506503 0.022052562 0.12100357 0 0.98328316 -0.18208323 -1.5812592e+20
0.0050061941 0.021936536 0.12040824 0.0091549987 0.98293173 -0.18374272 -1.5812592e+20
0.014590334 0.015643606 0.12539305 0.81470436 0.57071787 -0.1026541 -1.581259e+20
0.019212496 0.0094583342 0.125699 0.99399936 0.10763046 -0.019518886 -1.581259e+20
-0.017859817 0.02375114 0.13883448 -0.55565262 0.82133693 -0.12905735 -1.5812599e+20
-0.012057398 0.02459869 0.13303971 -0.21979941 0.96285427 -0.15684378 -1.5812596e+20
-0.0039206268 0.024827544 0.13260663 0 0.98685044 -0.16163647 -1.5812594e+20
0.0051244423 0.024778627 0.13242909 0.014307185 0.98692119 -0.16056773 -1.5812594e+20
0.011542724 0.024630835 0.1342075 0.32080993 0.93524408 -0.14966464 -1.5812597e+20
-0.020189853 -0.008099407 0.15193887 -0.98910904 -0.1433963 0.033177052 -1.581259e+20
-0.013335996 -0.015706126 0.15305996 -0.45430976 -0.86805582 0.20020424 -1.581259e+20
-0.0042637978 -0.017858416 0.15234481 0 -0.97513682 0.22160381 -1.581259e+20
0.004220061 -0.017827479 0.15247357 0.01210661 -0.97502387 0.22177 -1.581259e+20
0.014023132 -0.012754236 0.15220375 0.79469138 -0.59195054 0.13438861 -1.581259e+20
0.019189764 -0.0073515116 0.1520512 0.9962067 -0.084686063 0.020011863 -1.581259e+20
-0.020293621 0.011447022 0.15354684 -0.99560744 0.092897579 -0.011651834 -1.581259e+20
-0.016132649 0.017231626 0.15147251 -0.83972043 0.53828406 -0.071553156 -1.5812592e+20
0.015648739 0.013853122 0.15326434 0.96894312 0.24523629 -0.031754758 -1.581259e+20
0.019202907 0.011066259 0.15277101 0.99642169 0.083872676 -0.010447431 -1.581259e+20
-0.019166794 0.025214208 0.1563649 -0.71534735 0.69408613 -0.080762938 -1.5812601e+20
-0.012796383 0.026672259 0.15314107 -0.24393766 0.96248406 -0.11882299 -1.581259e+20
-0.0042430065 0.027321419 0.15227664 0 0.99227798 -0.12403446 -1.581259e+20
0.0044447309 0.027292376 0.1528329 0.0032525938 0.99243224 -0.12275014 -1.581259e+20
0.012380981 0.026523888 0.1533888 0.35091311 0.92930883 -0.11508749 -1.581259e+20
0.018212626 0.025120327 0.15743947 0.83146608 0.55185151 -0.064218454 -1.5812601e+20
-0.019912865 -0.0048495 0.17890082 -0.9615857 -0.27087814 0.044473797 -1.581259e+20
-0.013442509 -0.0090901395 0.18092643 -0.43359756 -0.90003967 0.043836381 -1.581259e+20
-0.0041180095 -0.010725058 0.17999986 0 -0.99631321 0.085790463 -1.581259e+20
0.0045849909 -0.010595937 0.18078493 0.0039960425 -0.99337244 0.11487069 -1.581259e+20
0.013556543 -0.0076420968 0.18005872 0.71194178 -0.70095837 0.04238262 -1.581259e+20
0.019025316 -0.0041759084 0.17783038 0.97834504 -0.20293231 0.040735606 -1.5812592e+20
-0.020355491 0.011913478 0.18096574 -0.99676287 0.063780844 -0.048947368 -1.581259e+20
-0.016738299 0.013908912 0.18043466 -0.90168834 0.29427275 -0.31679922 -1.5812596e+20
0.015864482 0.012144698 0.18094897 0.96607387 0.11777374 -0.22984906 -1.581259e+20
0.019255798 0.011802607 0.1805692 0.99885517 0.045997925 -0.013139951 -1.581259e+20
-0.019318433 0.026396826 0.18220572 -0.73986655 0.66484565 -0.10284823 -1.5812594e+20
-0.012237543 0.031726424 0.18176511 -0.73178935 0.66560215 -0.14648642 -1.581259e+20
-0.0046729152 0.037840825 0.18138692 -0.15078294 0.88835299 -0.43369752 -1.581259e+20
0.0052254372 0.036801614 0.18232983 0.51630026 0.79049665 -0.32946801 -1.581259e+20
0.013062903 0.029182652 0.18044183 0.6561023 0.74721837 -0.105804 -1.581259e+20
0.018719254 0.026027456 0.18303978 0.85558546 0.51618773 -0.039035976 -1.5812601e+20
-0.0088298321 0.049584113 0.19385655 -0.19485517 0.06398043 -0.97874308 -1.5812599e+20
-0.0055503771 0.049559981 0.19389004 0 0.22796959 -0.97366822 -1.5812599e+20
0.0027742505 0.050510477 0.19343798 0.039487552 0.4179205 -0.90762508 -1.5812599e+20
-0.027005037 -0.050290473 0.22025459 -0.88097286 -0.12478118 -0.4564169 -1.5812601e+20
-0.021361785 -0.055420816 0.21751158 -0.69494373 -0.38776064 -0.60555339 -1.581259e+20
-0.013006361 -0.058814306 0.21422394 -0.32316726 -0.53437352 -0.78103 -1.581259e+20
-0.0042447685 -0.059162132 0.21314916 -0.022216856 -0.68773788 -0.72561914 -1.581259e+20
0.0044171382 -0.059254527 0.21339561 0.07345482 -0.64640427 -0.75945103 -1.581259e+20
0.012900036 -0.057943154 0.21517371 0.41163749 -0.57950509 -0.70336926 -1.581259e+20
0.020273078 -0.054455627 0.21833751 0.74084949 -0.35533705 -0.56998044 -1.5812592e+20
0.02719046 -0.048972309 0.22182047 0.94698435 0 -0.32127967 -1.5812599e+20
-0.027543146 -0.034433968 0.21955632 -0.93433946 0.243191 -0.26051465 -1.5812596e+20
-0.021819508 -0.03447992 0.21401162 -0.80064565 -0.083443277 -0.59329903 -1.581259e+20
-0.0134886 -0.034969017 0.20775662 -0.34580296 -0.1882308 -0.91923314 -1.581259e+20
-0.0040807035 -0.035153668 0.20678517 -0.012553252 -0.2041281 -0.97886372 -1.581259e+20
0.0048335381 -0.034662437 0.20690072 0.046611961 -0.23137654 -0.97174698 -1.581259e+20
0.013445048 -0.034875672 0.20977551 0.5282287 -0.14327455 -0.83692706 -1.581259e+20
0.020698601 -0.035180729 0.21650596 0.78045815 0.0040343534 -0.62519503 -1.581259e+20
0.027276183 -0.031741552 0.21982166 0.68498951 -0.25426239 -0.6827445 -1.5812601e+20
-0.031103397 -0.011818509 0.21927668 0.19684088 0.051819656 0.97906506 -1.581259e+20
-0.020960504 -0.011131403 0.20908719 -0.94986874 -0.053516079 -0.30803466 -1.581259e+20
-0.013894225 -0.014405209 0.20126559 -0.48342678 -0.28911734 -0.82626247 -1.5812592e+20
-0.0040078717 -0.015262333 0.19918752 0 -0.35335633 -0.93548882 -1.5812592e+20
0.0047782529 -0.015964208 0.19983405 0 -0.23509458 -0.97197247 -1.5812592e+20
0.014430806 -0.012520967 0.20415387 0.79827845 -0.17726991 -0.57560998 -1.581259e+20
0.020393934 -0.010782694 0.21198003 0.87373728 -0.033659317 -0.485232 -1.581259e+20
0.029905772 -0.011842705 0.2193788 -0.1891401 -0.074003249 -0.97915757 -1.5812594e+20
-0.030995484 0.012218164 0.21894825 -0.46192613 -0.028708801 0.88645363 -1.5812592e+20
-0.021290563 0.011773634 0.20707195 -0.98121405 0.051067904 -0.18604028 -1.581259e+20
-0.016622839 0.0097601265 0.20660369 -0.69959986 -0.23023148 -0.67642695 -1.5812601e+20
0.016120981 0.01103892 0.20475213 0.98223191 0.1442378 -0.12006684 -1.5812592e+20
0.020358387 0.012404571 0.20906398 0.97415513 0.049477898 -0.2203943 -1.581259e+20
0.030876348 0.012473513 0.21961723 0.43305951 0.057783339 -0.89951128 -1.5812594e+20
-0.034891363 0.034574218 0.22033602 0.94868326 -0.073733449 0.3075116 -1.5812601e+20
-0.03000892 0.036066428 0.2184146 -0.96004927 -0.061365336 -0.27301964 -1.581259e+20
-0.021717863 0.034682304 0.20889531 -0.88692355 0.10130449 -0.45067069 -1.581259e+20
-0.013675439 0.037297659 0.20096083 -0.67743164 0.24990939 -0.69183207 -1.581259e+20
-0.0060717622 0.041857388 0.19746062 -0.59077424 0.51730132 -0.61918104 -1.5812596e+20
0.0061448682 0.04143557 0.1988377 0.85950875 0.16992131 -0.48204914 -1.5812594e+20
0.014017348 0.035978731 0.20412175 0.74271339 0.26509497 -0.61489952 -1.581259e+20
0.021075634 0.034617096 0.21138792 0.8430894 0.09457586 -0.52939183 -1.581259e+20
0.029318791 0.033485882 0.21987537 0.79569721 0.043084975 -0.60416019 -1.5812596e+20
-0.028469196 0.057959594 0.21846162 -0.84632611 0.094937779 -0.52413642 -1.5812592e+20
-0.021632072 0.060000006 0.21128348 -0.80448657 0.10008689 -0.58547747 -1.581259e+20
-0.013141415 0.060680594 0.20344464 -0.4746044 0.30959037 -0.82395661 -1.581259e+20
-0.0042786947 0.060245086 0.20120247 -0.028994601 0.43869215 -0.89816958 -1.581259e+20
0.0046107322 0.059579052 0.20128766 0.14096253 0.40683109 -0.9025619 -1.581259e+20
0.013885487 0.060856584 0.20646039 0.64265174 0.23439565 -0.72942257 -1.581259e+20
0.02146087 0.059325852 0.21455896 0.8233071 0.10600515 -0.55760938 -1.581259e+20
0.02799543 0.058254492 0.21950403 0.8220433 0.20510219 -0.53120416 -1.5812599e+20
-0.02718563 0.07970798 0.22081394 -0.9149859 0.13844274 -0.3789914 -1.5812601e+20
-0.02136761 0.082628325 0.21719682 -0.75127196 0.12049189 -0.64890075 -1.581259e+20
-0.013087352 0.083472863 0.21220428 -0.47626516 0.208841 -0.854141 -1.581259e+20
-0.0040693386 0.082819387 0.20914954 -0.052810855 0.2150553 -0.97517294 -1.581259e+20
0.0046725674 0.082496129 0.20997158 0.1168924 0.2681807 -0.95625067 -1.581259e+20
0.013297725 0.083141111 0.21393068 0.5297057 0.29667416 -0.7946046 -1.581259e+20
0.020450298 0.080629312 0.21856275 0.76585507 0.10282436 -0.63473868 -1.5812592e+20
-0.026372999 0.098370463 0.22150119 -0.92249423 0.054185253 -0.38218889 -1.5812599e+20
-0.020444537 0.10454576 0.21874185 -0.78549379 0.073071562 -0.61454046 -1.5812592e+20
-0.013449471 0.10708495 0.21521877 -0.51338571 0.016951554 -0.8579905 -1.581259e+20
-0.0043110168 0.10686556 0.21211016 -0.13547055 0.10594413 -0.98510081 -1.581259e+20
0.0046254117 0.10755941 0.2129444 0.1293004 0.14273438 -0.98127884 -1.581259e+20
0.012789709 0.10651658 0.21690942 0.62286031 0.1386684 -0.7699455 -1.581259e+20
0.019865997 0.10403559 0.21938534 0.58226603 0.20718831 -0.78615475 -1.5812596e+20
-0.018881764 0.13076524 0.21970896 -0.80344814 0.079821981 -0.58999956 -1.5812594e+20
-0.013168619 0.1310261 0.21735168 -0.60280621 0.13004276 -0.78721887 -1.581259e+20
-0.0043788403 0.13098142 0.21473294 -0.085152946 0.2081833 -0.97437608 -1.581259e+20
0.0044590752 0.13116077 0.21512431 0.3111206 0.25311369 -0.91604441 -1.581259e+20
0.012626481 0.13060753 0.21867801 0.59598207 0.17158289 -0.78445184 -1.581259e+20
0.019058116 0.13024402 0.22136153 -0.07984826 -0.077530794 -0.99378735 -1.5812601e+20
-0.012017154 0.14691159 0.21956316 -0.49907765 0.44832966 -0.74156731 -1.5812594e+20
-0.0041840174 0.14903423 0.21859811 -0.18372294 0.46449327 -0.8663094 -1.5812592e+20
0.0043074926 0.14880131 0.21887866 0.25959992 0.46537292 -0.84618914 -1.5812592e+20
0.011296028 0.1461672 0.21974809 0.54502088 0.44536766 -0.71035188 -1.5812599e+20
-0.027893092 -0.053323921 0.23600011 -0.97338897 -0.22903977 0.0073934402 -1.581259e+20
-0.022711124 -0.061095163 0.23626244 -0.78669685 -0.61719394 0.013406287 -1.581259e+20
-0.013162414 -0.066181928 0.23615724 0.02707685 -0.99963242 0.0013809368 -1.581259e+20
-0.0044909744 -0.065993242 0.23607117 0.064077422 -0.99777699 0.018307835 -1.581259e+20
0.0042719664 -0.066033013 0.23636854 -0.053966526 -0.99838072 0.017988842 -1.581259e+20
0.013331176 -0.065821357 0.23633517 0.020985918 -0.99977893 -0.0012679122 -1.581259e+20
0.022230525 -0.057463691 0.23617077 0.89508307 -0.44579053 0.0098496657 -1.581259e+20
0.027241107 -0.051447693 0.23702495 0.95955163 -0.2783092 0.04248089 -1.5812596e+20
-0.028948201 -0.034577269 0.23659992 -0.93215698 0.32438302 -0.16080734 -1.581259e+20
-0.024696123 -0.036721062 0.23544548 -0.83551019 0.54886299 -0.025924644 -1.581259e+20
-0.015294254 -0.038455311 0.22841902 -0.065425709 0 0.99785751 -1.5812599e+20
0.015937626 -0.042987682 0.23816544 0.41003656 -0.55900955 -0.72067904 -1.5812599e+20
0.024061361 -0.035952505 0.23622368 0.9932915 -0.057377126 -0.10039873 -1.581259e+20
0.02782334 -0.034189839 0.23558958 0.97027189 -0.23151782 0.070512667 -1.581259e+20
-0.035501167 -0.012086593 0.23499383 1 0 0 -1.5812594e+20
-0.032528177 -0.012071977 0.23692009 0.9985832 0.029067002 -0.044571575 -1.581259e+20
-0.025088733 -0.013956559 0.24926469 -0.93708736 0 0.34909484 -1.5812599e+20
0.024040183 -0.012185281 0.22318386 0.94017559 0 -0.34069023 -1.5812597e+20
0.030463139 -0.012107419 0.23565026 0.9995625 -0.028556542 -0.0077040168 -1.581259e+20
-0.035588019 0.011709151 0.23566914 1 0 0 -1.5812596e+20
-0.032540258 0.011987381 0.23628448 0.99950922 -0.0060572573 -0.030735413 -1.581259e+20
-0.026054204 0.0038886666 0.2491585 -0.95329326 0 0.3020463 -1.5812599e+20
0.023831977 0.0085895453 0.22268236 0.90027303 0.31632996 -0.29907185 -1.5812601e+20
0.030413793 0.01184875 0.23530509 0.99982309 -0.0085303914 -0.016766489 -1.581259e+20
-0.035272889 0.036660969 0.2346662 0.99986565 -0.0083800694 0.014087128 -1.5812592e+20
-0.032171626 0.035779703 0.2368712 0.98976785 -0.10519215 -0.096407086 -1.581259e+20
-0.025791228 0.046265483 0.24972884 0 -0.42277986 -0.90623248 -1.5812599e+20
0.025475165 0.038695775 0.23160836 0.72735155 0.61295247 -0.30862442 -1.5812601e+20
0.030409131 0.035694066 0.23554498 0.99986625 0.013766366 -0.0088322815 -1.581259e+20
-0.035206836 0.054516267 0.23533706 -0.96372503 -0.24070507 0.1153046 -1.5812601e+20
-0.03114132 0.05940631 0.23650733 -0.99645686 0.082605094 0.015818592 -1.581259e+20
-0.025163744 0.067951947 0.23499195 -0.22493054 -0.97387946 0.03106642 -1.5812601e+20
0.024730355 0.063780308 0.23560528 0.85003841 -0.52650243 -0.015167253 -1.5812592e+20
0.029312899 0.058567606 0.23612051 0.97267348 0.23205227 0.0076175476 -1.581259e+20
-0.028470427 0.08132875 0.23578303 -0.99088949 0.12618971 0.047055516 -1.581259e+20
-0.024255101 0.085654609 0.23707895 -0.96781152 0.24847239 0.040027246 -1.581259e+20
0.023190562 0.084112853 0.23638621 0.97353071 0.20675395 0.097420096 -1.581259e+20
0.027702348 0.079997621 0.23507601 0.9863289 0.14607751 -0.076267295 -1.581259e+20
-0.027464405 0.10260627 0.23533407 -0.9951902 0.054718047 0.081255287 -1.5812592e+20
-0.02277188 0.10761553 0.23656377 -0.98973876 0.13971357 0.029954363 -1.581259e+20
-0.015872091 0.11344262 0.2356912 -0.82966435 -0.55584651 -0.051882718 -1.5812601e+20
0.01598059 0.11262187 0.23960912 0.95465487 0.013538058 0.29740682 -1.5812594e+20
0.02131862 0.10627129 0.23631747 0.98740339 0.15476957 0.032875277 -1.581259e+20
0.026994379 0.10227638 0.2345019 0.97792673 0.05211167 -0.20234555 -1.5812597e+20
-0.026605047 0.13028549 0.23698071 -0.94069928 0 0.33924165 -1.5812599e+20
-0.021623641 0.13066243 0.23652799 -0.98849112 0.13691242 0.064344212 -1.581259e+20
-0.0159605 0.13114643 0.23301056 -0.8248868 0.42228082 -0.37581992 -1.5812594e+20
0.015827339 0.13081922 0.23638712 0.92134267 0.26181048 0.28737253 -1.581259e+20
0.019942541 0.13071881 0.23655707 0.98713124 0.15128043 0.051829819 -1.581259e+20
-0.019655278 0.14615549 0.23543872 -0.88584155 0.46397817 -0.0029739235 -1.581259e+20
-0.013330873 0.15345855 0.23625335 -0.84527987 0.5337953 0.023757907 -1.581259e+20
-0.0045054364 0.15961725 0.23602472 -0.33940834 0.93423903 0.10954156 -1.581259e+20
0.0046240836 0.15885755 0.2361431 0.46839368 0.88276672 0.036472265 -1.581259e+20
0.012883131 0.15130582 0.23602034 0.86985159 0.49316764 0.011998736 -1.581259e+20
0.019311879 0.1452197 0.23549232 0.88809949 0.4592244 -0.019802995 -1.5812594e+20
-0.0022940261 0.16723435 0.23549658 -0.074025378 0.98462069 0.15824756 -1.5812596e+20
0.0024530597 0.16775101 0.23527236 0.38004458 0.91595626 0.12880312 -1.5812599e+20
-0.026945934 -0.0502203 0.2510688 -0.87978798 -0.19397286 0.43399027 -1.5812599e+20
-0.02106424 -0.055653267 0.25429943 -0.70548493 -0.34246576 0.62049031 -1.581259e+20
-0.013162088 -0.058114175 0.25774756 -0.33891407 -0.53883725 0.77122742 -1.581259e+20
-0.0044693621 -0.059390739 0.25872681 -0.036431558 -0.65483797 0.75489074 -1.581259e+20
0.0043624802 -0.059148733 0.25869122 0.071827665 -0.58439082 0.80828726 -1.581259e+20
0.013097615 -0.057342537 0.25696662 0.45521528 -0.49002877 0.74340487 -1.581259e+20
0.020271314 -0.054431606 0.25367001 0.73491842 -0.34157512 0.58585095 -1.5812592e+20
-0.02754554 -0.033825722 0.25199378 -0.9371829 0.26990652 0.2209948 -1.5812596e+20
-0.022006251 -0.03586499 0.25639772 -0.79424626 -0.0010789218 0.60759509 -1.581259e+20
-0.013150439 -0.034920063 0.26304689 -0.40908483 -0.071343988 0.90970308 -1.581259e+20
-0.0040949117 -0.035716597 0.26525277 -0.0096958773 -0.48643017 0.87366569 -1.581259e+20
0.004388853 -0.035036694 0.26515624 -0.037078582 -0.25190589 0.96704113 -1.581259e+20
0.013327515 -0.035022784 0.26173767 0.51697785 -0.074126668 0.8527832 -1.581259e+20
0.021252794 -0.035268966 0.25482374 0.76998717 0.031594694 0.63727671 -1.581259e+20
0.026869761 -0.030369565 0.25129375 0.74639595 -0.19962512 0.63485652 -1.5812601e+20
-0.035226304 -0.011576371 0.25129265 1 0 0 -1.5812601e+20
-0.030233566 -0.011769908 0.25218576 0.32944927 0.026542334 -0.94380009 -1.5812592e+20
-0.021036435 -0.012130411 0.25905406 -0.88305831 -0.0096025337 0.46916506 -1.581259e+20
-0.013911838 -0.011648331 0.26730406 -0.46590301 -0.058075104 0.88292795 -1.581259e+20
-0.0041968203 -0.011582433 0.26950118 0.013636389 0.012932444 0.99982339 -1.581259e+20
0.0042631039 -0.011480236 0.26957422 -0.0044364594 0.032555636 0.99946004 -1.581259e+20
0.013660992 -0.01189374 0.26537403 0.63844275 -0.043202531 0.76845586 -1.581259e+20
0.021200938 -0.01170933 0.25516045 0.53254306 0 0.84640294 -1.581259e+20
0.029555332 -0.01168369 0.25208172 0.53752124 -0.034356035 0.84255004 -1.5812592e+20
-0.035109673 0.010619377 0.25158137 1 0 0 -1.5812601e+20
-0.029714288 0.012693023 0.25221261 0.038482193 0.0086905034 -0.9992215 -1.5812592e+20
-0.021072518 0.011771954 0.26004133 -0.88276315 0.039849937 0.46812522 -1.581259e+20
-0.013982956 0.011427812 0.26779443 -0.38355556 -0.018586246 0.92333078 -1.581259e+20
-0.0044597741 0.0116837 0.26999849 -0.0062710843 0.047717828 0.99884123 -1.581259e+20
0.0044407276 0.011632926 0.27029109 -0.0069189635 0.016710531 0.99983644 -1.581259e+20
0.013537175 0.01135034 0.26608324 0.71630388 0.10348488 0.69007212 -1.581259e+20
0.021287194 0.012110575 0.25612062 0.59526867 0.11886462 0.79468632 -1.581259e+20
0.030039184 0.012163952 0.25227895 0.69228667 0.00014708382 0.72162247 -1.5812592e+20
-0.035762008 0.034537256 0.2507019 0 0 0 -1.5812599e+20
-0.02937812 0.034697231 0.25319278 -0.93801725 -0.053114288 0.34249467 -1.581259e+20
-0.02134419 0.035541236 0.2608093 -0.82910514 -0.0065493695 0.55905426 -1.581259e+20
-0.013786947 0.035731055 0.26781666 -0.39520848 0.021265186 0.91834527 -1.581259e+20
-0.0043220036 0.035711944 0.26952279 -0.018978387 -0.0099879447 0.99976999 -1.581259e+20
0.0041975132 0.035190493 0.26960677 0.0079238964 -0.033820175 0.9993965 -1.581259e+20
0.013408449 0.035768636 0.26669544 0.56175977 0.0070235198 0.82727063 -1.581259e+20
0.021633029 0.035580374 0.2577014 0.70553356 0.008111624 0.70863008 -1.581259e+20
0.029796187 0.034859654 0.25181109 0.62781912 0.068744391 0.77531755 -1.5812592e+20
-0.028208768 0.057571761 0.25336435 -0.83110791 0.15648925 0.53363907 -1.5812592e+20
-0.021636605 0.058943573 0.25922775 -0.7724629 0.13723031 0.6200555 -1.581259e+20
-0.013542063 0.058938827 0.26652405 -0.34662712 0.21710415 0.91253245 -1.581259e+20
-0.0040489403 0.059431858 0.26782197 -0.036037467 0.21796991 0.97528988 -1.581259e+20
0.0042838291 0.059789423 0.267607 0.076104999 0.17954034 0.98080242 -1.581259e+20
0.013327512 0.058709979 0.26520962 0.53759164 0.20594156 0.81766945 -1.581259e+20
0.021822106 0.05898675 0.25672176 0.75173885 0.10602211 0.65088254 -1.581259e+20
0.028183032 0.057283059 0.2524358 0.88955331 0.1678019 0.42489702 -1.5812597e+20
-0.026765015 0.076192543 0.25204319 -0.8228541 0.13631979 0.55165941 -1.5812599e+20
-0.021190532 0.081818476 0.25442207 -0.71883595 0.14318317 0.68027461 -1.581259e+20
-0.013396797 0.083148673 0.25958163 -0.47818139 0.17373691 0.86090541 -1.581259e+20
-0.0042124004 0.082923867 0.26210928 -0.15424567 0.12339138 0.98029733 -1.581259e+20
0.0046251733 0.083080865 0.26170707 0.27445889 0.11611648 0.95456231 -1.581259e+20
0.013507838 0.082998581 0.25774392 0.54935914 0.14779535 0.82241172 -1.581259e+20
0.020279229 0.080652364 0.25349116 0.78411633 0.10226841 0.61212969 -1.5812592e+20
0.026608765 0.074941844 0.25165015 0.92384845 0 0.38275859 -1.5812599e+20
-0.020451004 0.10380402 0.25297046 -0.68613821 0.098755948 0.72073692 -1.5812592e+20
-0.013125755 0.10619246 0.25648868 -0.53199953 0.11287111 0.83918804 -1.581259e+20
-0.0041425251 0.10681248 0.25906909 -0.20091897 0.16636443 0.96537787 -1.581259e+20
0.004408509 0.10696971 0.25913632 0.26550198 0.11363804 0.95738977 -1.581259e+20
0.013122387 0.10558016 0.25531784 0.57637751 0.16399281 0.80055934 -1.581259e+20
0.019598939 0.10258918 0.25220332 0.86335558 0.049894687 0.50212306 -1.5812596e+20
-0.018659219 0.12966676 0.25192145 -0.59148014 0.094281949 0.80078846 -1.5812596e+20
-0.012924665 0.13105276 0.25393531 -0.59544712 0.12877998 0.79300594 -1.581259e+20
-0.0043964726 0.13056064 0.25702423 -0.17059676 0.16392711 0.97160929 -1.581259e+20
0.004495875 0.13086456 0.25674009 0.19417566 0.1622933 0.96744859 -1.581259e+20
0.01205127 0.1307435 0.25311574 0.66660237 0.18201092 0.7228508 -1.581259e+20
0.018152753 0.13508792 0.25154081 0.80991012 0.57693821 -0.10577286 -1.5812599e+20
-0.018562542 0.14488345 0.25094831 -0.71081227 0.44413942 0.54542285 -1.5812599e+20
-0.011821819 0.14623116 0.25209501 -0.49099708 0.44759196 0.74738425 -1.5812596e+20
-0.0038842333 0.14855954 0.2532436 -0.12939164 0.45699108 0.88000971 -1.5812592e+20
0.0040302379 0.14835012 0.25285453 0.24276206 0.45312223 0.85775691 -1.5812592e+20
0.010588225 0.14665335 0.2520386 0.52432203 0.44531938 0.72579414 -1.5812599e+20
