# .PCD v0.7 - Point Cloud Data file format
VERSION 0.7
FIELDS x y z normal_x normal_y normal_z curvature
SIZE 4 4 4 4 4 4 4
TYPE F F F F F F F
COUNT 1 1 1 1 1 1 1
WIDTH 515
HEIGHT 1
VIEWPOINT 0 0 0 1 0 0 0
POINTS 515
DATA ascii
-0.027698388 -0.024722293 -0.00048418425 0 0 -1 -5.6636943e+17
-0.018886086 -0.0277366 -0.00049716234 0 0 -1 -5.6636943e+17
-0.010958493 -0.02895534 -0.00056013354 0 0 -1 -5.6636943e+17
-0.0037489485 -0.030952787 -0.00050543674 0 0 -1 -5.6636943e+17
0.0032511191 -0.030421773 -0.00055026071 0 0 -1 -5.6636943e+17
0.01121162 -0.030354645 -0.00056223903 0 0 -1 -5.6636943e+17
0.019112367 -0.028216045 -0.0006119365 0 0 -1 -5.6636943e+17
0.027056614 -0.025245802 -0.00058586092 0 0 -1 -5.6636943e+17
0.032060605 -0.022798082 -0.00060580176 0 0 -1 -5.6636943e+17
-0.032086581 -0.016014764 -0.00067917258 0 0 -1 -5.6636943e+17
-0.027494214 -0.010358959 -0.00045221427 0 0 -1 -5.6636943e+17
-0.019015884 -0.010874286 -0.00051300722 0 0 -1 -5.6636943e+17
-0.011061682 -0.0092031118 -0.00052984804 0 0 -1 -5.6636943e+17
-0.0040593161 -0.010442203 -0.00057775056 0 0 -1 -5.6636943e+17
0.0027700057 -0.010750496 -0.00058971439 0 0 -1 -5.6636943e+17
0.01118476 -0.010735322 -0.00060296507 0 0 -1 -5.6636943e+17
0.01945636 -0.0099843694 -0.00058843358 0 0 -1 -5.6636943e+17
0.027761439 -0.010210945 -0.00065404392 0 0 -1 -5.6636943e+17
0.033048611 -0.010189936 -0.00057800114 -0.85749298 0 -0.51449579 -5.6636943e+17
-0.032343328 0.015064716 -0.00065237284 0 0 -1 -5.6636943e+17
-0.02757773 0.010304676 -0.00044801674 0 0 -1 -5.6636943e+17
-0.01897344 0.010185486 -0.00058560568 0 0 -1 -5.6636943e+17
-0.011146811 0.0093970774 -0.00054409803 0 0 -1 -5.6636943e+17
-0.0037901918 0.010765061 -0.00054699986 0 0 -1 -5.6636943e+17
0.0032717099 0.010301227 -0.00061297859 0 0 -1 -5.6636943e+17
0.011101999 0.0094803954 -0.00065164542 0 0 -1 -5.6636943e+17
0.019163653 0.010046925 -0.00068598764 0 0 -1 -5.6636943e+17
0.027376162 0.0093830461 -0.00064936053 0 0 -1 -5.6636943e+17
0.031920351 0.012527418 -0.00068952888 0 0 -1 -5.6636943e+17
-0.032240152 0.031156778 -0.00071290135 0 0 -1 -5.6636943e+17
-0.027394224 0.031262856 -0.00048655513 0 0 -1 -5.6636943e+17
-0.018587358 0.031362072 -0.00056872668 0 0 -1 -5.6636943e+17
-0.010667188 0.030178366 -0.00060334697 0 0 -1 -5.6636943e+17
-0.0040778848 0.030622303 -0.00056852715 0 0 -1 -5.6636943e+17
0.0027159711 0.030316103 -0.00064453779 0 0 -1 -5.6636943e+17
0.011268695 0.030231414 -0.00065234967 0 0 -1 -5.6636943e+17
0.019697938 0.030713508 -0.00068516255 0 0 -1 -5.6636943e+17
0.028328726 0.030802054 -0.00069172861 0 0 -1 -5.6636943e+17
0.03316322 0.030173143 -0.00059004623 -0.98058069 0 -0.19611613 -5.6636943e+17
-0.027356664 0.045388177 -0.00048544334 0 0 -1 -5.6636943e+17
-0.019596592 0.046147268 -0.00051397004 0 0 -1 -5.6636943e+17
-0.010675913 0.046042338 -0.00072564435 0 0 -1 -5.6636943e+17
-0.003452291 0.046737928 -0.00055541843 0 0 -1 -5.6636943e+17
0.0021304921 0.045772303 -0.00066833606 0 0 -1 -5.6636943e+17
0.010269887 0.045239985 -0.0007086838 0 0 -1 -5.6636943e+17
0.018704729 0.046876092 -0.00070864335 0 0 -1 -5.6636943e+17
0.026493089 0.045383789 -0.00058655522 0 0 -1 -5.6636943e+17
0.031553611 0.04352174 -0.00096889585 0 0 -1 -5.6636943e+17
-0.032081354 -0.023414429 0.0095946174 0.99349725 0.1091571 -0.032370228 -5.6636943e+17
-0.02706578 -0.026603134 0.0086267618 0.79707181 0.53621167 -0.27776542 -5.6637047e+17
-0.018933937 -0.031609755 0.0071935039 0.44270486 0.73505664 -0.51352119 -5.6637105e+17
-0.011346151 -0.033700883 0.0066138366 0.24114962 0.71491009 -0.65631574 -5.6637105e+17
-0.0038678497 -0.035058618 0.0062939338 0.10347743 0.7504735 -0.65274948 -5.6637105e+17
0.0038398309 -0.034822274 0.0061288434 -0.052852064 0.69873357 -0.71342707 -5.6637105e+17
0.011519151 -0.034216937 0.0063438253 -0.21139327 0.73396009 -0.64545757 -5.6637105e+17
0.018994773 -0.032599613 0.0070102345 -0.37350348 0.7436946 -0.5544489 -5.6637102e+17
0.026734317 -0.028973833 0.0079035135 -0.60676318 0.69581771 -0.38428634 -5.6637105e+17
0.032801308 -0.024165507 0.0094123976 -0.96996689 0.23150428 -0.074631594 -5.6637064e+17
-0.032306734 -0.009030045 0.0099364873 0.98738348 0.098911963 -0.12365437 -5.6637043e+17
-0.028816262 -0.010615255 0.0073395423 0.87852949 -0.013596893 -0.4774946 -5.6636878e+17
-0.019235844 -0.010263162 0.0013035273 0 0 -1 -5.6637043e+17
-0.011534587 -0.0097852098 0.0013906948 0 0 -1 -5.6637043e+17
-0.0039570685 -0.010203782 0.0013069723 0 0 -1 -5.663704e+17
0.0036873124 -0.010103956 0.0013629236 0 0 -1 -5.663705e+17
0.011607018 -0.010033211 0.0013239341 0 0 -1 -5.6637043e+17
0.019060323 -0.0099755842 0.0013364801 0 0 -1 -5.663704e+17
0.026833672 -0.010569558 0.0015942358 -0.029837456 0 -0.99955475 -5.6637053e+17
0.033744466 -0.010017178 0.0092387656 -0.94353688 -0.027531268 -0.33012161 -5.6636803e+17
-0.032239497 0.010868778 0.010071207 -0.98751611 0.011060261 -0.15712935 -5.663704e+17
-0.028775873 0.009814457 0.007282936 0.84181988 -0.010678151 -0.539653 -5.6636868e+17
-0.01902771 0.010073333 0.0013753282 0 0 -1 -5.6637047e+17
-0.011197644 0.010352654 0.0013287441 0 0 -1 -5.6637047e+17
-0.0036972424 0.0099299597 0.0012624583 0 0 -1 -5.6637043e+17
0.0037148669 0.010083253 0.0013545492 0 0 -1 -5.6637047e+17
0.011373772 0.0099351956 0.0013728802 0 0 -1 -5.6637047e+17
0.019188754 0.010027407 0.001408525 0 0 -1 -5.6637053e+17
0.026928062 0.010319238 0.0016456427 -0.023993092 0 -0.99971211 -5.6637047e+17
0.033845723 0.0103554 0.0092338882 -0.72903663 0.17805903 -0.66090888 -5.6636789e+17
-0.032265998 0.029545378 0.0099211661 0.90173548 0.25570703 -0.3485499 -5.6637043e+17
-0.028704375 0.031078592 0.0074723619 0.88469988 -0.02607798 -0.46543097 -5.663683e+17
-0.019101989 0.030800195 0.0013796081 0 0 -1 -5.663705e+17
-0.01144371 0.030577479 0.0013497376 0 0 -1 -5.6637053e+17
-0.00393685 0.030848943 0.0013163417 0 0 -1 -5.663705e+17
0.0037168548 0.030907337 0.0013975671 0 0 -1 -5.6637053e+17
0.011508492 0.030611446 0.0013544016 0 0 -1 -5.6637057e+17
0.019235233 0.030360624 0.0014387491 0 0 -1 -5.663705e+17
0.02694083 0.03115559 0.0021676098 -0.080550238 -0.0063737412 -0.99673021 -5.663706e+17
0.033341076 0.030698223 0.0093987342 -0.98884636 -0.0013003785 -0.1489331 -5.6636792e+17
-0.031465899 0.042813133 0.0079249544 0.90243304 -0.40276644 -0.15295053 -5.6636943e+17
-0.026581762 0.045315154 0.0090429382 0.6578294 -0.73804128 -0.15018469 -5.6637091e+17
-0.019097734 0.047998201 0.0078404667 0.073602378 -0.94514686 -0.31824538 -5.6637088e+17
-0.011283365 0.04806779 0.0079749515 0 -0.94019061 -0.34064877 -5.6637084e+17
-0.0039091916 0.048221923 0.007876114 0 -0.95077491 -0.30988219 -5.6637081e+17
0.0037022589 0.047975082 0.0076531442 0 -0.92617792 -0.37708673 -5.6637088e+17
0.011390089 0.048164655 0.007921882 0 -0.94235831 -0.33460549 -5.6637084e+17
0.019012025 0.048067845 0.0077540339 -0.0040689423 -0.95497823 -0.29664791 -5.6637084e+17
0.026944537 0.046831071 0.0084632486 -0.4571794 -0.85445845 -0.24675433 -5.6637098e+17
0.032150898 0.043503236 0.0093357796 -0.83062673 -0.54183531 -0.1283496 -5.6636995e+17
-0.032083243 -0.023510639 0.028606923 0.99902201 0.044215415 0 -5.6636943e+17
-0.027452331 -0.026960375 0.028710522 0.84389585 0.5364272 -0.009250029 -5.6637098e+17
-0.019351348 -0.03383616 0.02881863 0.52351129 0.85193491 -0.011951885 -5.6637074e+17
-0.011701374 -0.037373982 0.028897261 0.32061332 0.94696313 -0.021632738 -5.6637057e+17
-0.0040619746 -0.039181627 0.028545683 0.13416211 0.99085289 -0.014530692 -5.6637057e+17
0.0037228544 -0.039444156 0.028587177 -0.072036214 0.99642366 -0.04416677 -5.6637057e+17
0.011651429 -0.038121093 0.02893186 -0.27845019 0.96023864 -0.020183628 -5.6637064e+17
0.019421259 -0.035181299 0.028799027 -0.45515132 0.8901999 -0.019528685 -5.6637067e+17
0.026944866 -0.030197704 0.028955685 -0.66001213 0.75093544 -0.021906851 -5.6637084e+17
0.032837737 -0.024174128 0.029076766 -0.97538549 0.22050641 0 -5.663706e+17
-0.032578561 -0.0090906955 0.029927544 0.98256302 -0.17299818 -0.068128668 -5.663704e+17
-0.029732874 -0.010662097 0.028597027 0.99907547 -0.0084310165 0.042155083 -5.6637105e+17
0.03025453 -0.013833851 0.026953366 -1 0 0 -5.6636943e+17
0.033996418 -0.0098991543 0.028946651 -0.99536794 -0.088976182 -0.036413442 -5.6636854e+17
0.03873137 -0.0029583233 0.033922397 -1 0 0 -5.6636943e+17
-0.033751752 0.0090230834 0.030258261 -0.94015491 0.30703822 -0.14777096 -5.6636998e+17
-0.029745977 0.012586423 0.025995865 0.99396431 -5.568314e-06 0.10970401 -5.6637033e+17
0.030219343 0.014633819 0.029891342 -1 0 0 -5.6636943e+17
0.03481612 0.010040144 0.028784093 -0.98479623 -0.081577405 -0.15336736 -5.6636885e+17
0.038744345 0.0058988566 0.032303397 -0.99388367 -0.10713494 0.026781077 -5.6636943e+17
-0.032151572 0.030897094 0.029073898 0.99747753 0.012973127 -0.069786817 -5.6637016e+17
-0.029629285 0.031025359 0.02865033 0.9983753 -0.050175447 0.027003024 -5.6637064e+17
0.030267119 0.0309905 0.030185293 -0.98287231 -0.05621995 -0.17550272 -5.6636943e+17
0.033308621 0.030582977 0.029051308 -0.99967378 -0.025367411 -0.0029644289 -5.6636851e+17
-0.031727094 0.042376723 0.027254701 0.91325629 -0.40738553 0 -5.6636943e+17
-0.026724555 0.045556169 0.029027075 0.66610086 -0.74584031 -0.0056391321 -5.6637081e+17
-0.019345473 0.04896782 0.028517606 0.082848713 -0.99656212 0 -5.663706e+17
-0.011523169 0.049215186 0.028712546 0 -1 0 -5.663706e+17
-0.0039003829 0.049241107 0.028596453 0 -1 0 -5.6637053e+17
0.0037609935 0.049171004 0.028855117 0 -1 0 -5.663706e+17
0.011426316 0.049262051 0.028676074 0 -1 0 -5.6637057e+17
0.019186486 0.04921085 0.028758045 -0.0081323404 -0.99996698 0 -5.6637064e+17
0.027118146 0.047327746 0.028898731 -0.46399397 -0.88583833 0 -5.6637081e+17
0.032122292 0.043820281 0.028432347 -0.82058388 -0.57152617 0 -5.6636981e+17
-0.0034053975 -0.046556897 0.047049541 -0.6210407 -0.075172707 -0.78016502 -5.6637074e+17
0.0035627226 -0.046493985 0.046789542 0.73883742 -0.093574323 -0.66735542 -5.6637071e+17
-0.031868845 -0.023528015 0.04778057 -0.99719352 -0.072242901 0.019645547 -5.6636943e+17
-0.027192516 -0.026756542 0.04815726 -0.79463476 -0.59849423 -0.10178517 -5.6637102e+17
-0.019207196 -0.032936197 0.048841622 -0.47069269 -0.84980953 -0.23721763 -5.6637081e+17
-0.011873538 -0.035440616 0.049506363 -0.22644085 -0.78168339 -0.58111584 -5.6637071e+17
-0.0046826908 -0.037177447 0.050145052 -0.24845488 -0.48259702 -0.8398633 -5.663704e+17
0.0043926951 -0.037802983 0.050003022 0.05597638 -0.28126818 -0.9579953 -5.6637029e+17
0.011722543 -0.03667381 0.04907224 0.28249821 -0.9141475 -0.29073867 -5.6637064e+17
0.019318098 -0.034444261 0.048632622 0.45307848 -0.8907935 -0.034739062 -5.6637074e+17
0.027102388 -0.029729761 0.048407029 0.658023 -0.73733181 -0.15279897 -5.6637088e+17
0.032773253 -0.023986306 0.048130479 0.96068829 -0.11592422 -0.25226888 -5.6637047e+17
-0.032729581 -0.0083160056 0.047300458 -0.99302155 -0.11707941 -0.014163841 -5.663706e+17
-0.029167773 -0.010923945 0.049399704 -0.99272978 0 -0.12036514 -5.6637088e+17
-0.019592108 -0.0095710326 0.057244014 0.18589166 0 -0.98257023 -5.6636943e+17
-0.013697158 -0.01032686 0.057330981 2.5478021e-05 -0.025009524 -0.99968719 -5.6636943e+17
0.0037532151 -0.016908616 0.057216547 0 0 -1 -5.6636943e+17
0.0078594685 -0.01943469 0.057215191 0 0 -1 -5.6636943e+17
0.018237317 -0.010182917 0.056996234 2.5567577e-05 -0.024978884 -0.99968797 -5.6636943e+17
0.028850848 -0.011583422 0.053815454 -0.068898961 0 -0.99762362 -5.6636943e+17
0.033997498 -0.010018076 0.047930956 0.99641091 -0.069927305 -0.047702745 -5.6636888e+17
0.038741708 -0.0039247107 0.045194555 1 0 0 -5.6636943e+17
-0.033660721 0.010108355 0.046265412 -0.99215049 0.11037479 0.058779042 -5.6637016e+17
-0.028688269 0.01129471 0.053279623 -0.98184657 0 0.18967706 -5.6637071e+17
-0.019098369 0.0103201 0.057267215 0.14142136 0 -0.98994946 -5.6636943e+17
-0.01222518 0.012381138 0.057286795 -0.040513866 0.053942598 -0.99772179 -5.6636943e+17
-0.004490409 0.015316844 0.057214729 -0.054664176 0.12614822 -0.99050415 -5.6636943e+17
0.0031090546 0.015614196 0.057188958 0.0063659986 0.065153748 -0.99785495 -5.6636943e+17
0.011034464 0.013792615 0.057087354 0.024495833 0.036745228 -0.99902433 -5.6636943e+17
0.018508514 0.012200302 0.056973159 0 0 -1 -5.6636943e+17
0.027608696 0.011986904 0.055145174 -0.59910184 0 -0.80067283 -5.6636943e+17
0.034817375 0.01019855 0.047935139 0.9970265 0.075992674 0.012775383 -5.6636868e+17
0.038783822 0.0076219863 0.045393821 1 0 0 -5.6636943e+17
-0.032015026 0.031558398 0.048995521 -0.99922681 0.027906248 0.02769593 -5.6637029e+17
-0.029044738 0.031027887 0.048962735 -0.99548131 0.039626319 -0.086294748 -5.6636985e+17
-0.019394679 0.030677041 0.057279252 0.08658582 -0.07430727 -0.99346936 -5.6636943e+17
-0.011884852 0.029788209 0.057288084 0 -0.066519015 -0.99778521 -5.6636943e+17
-0.0040369108 0.030080065 0.057243668 0 -0.051214755 -0.99868768 -5.6636943e+17
0.0035936865 0.030609762 0.05722655 0 -0.027767068 -0.99961442 -5.6636943e+17
0.010925197 0.030771589 0.05715837 0 -0.023802778 -0.9997167 -5.6636943e+17
0.018820258 0.031750489 0.057196479 -0.0021819542 -0.15915912 -0.98725057 -5.6636943e+17
0.028476324 0.031433895 0.053370345 -0.10386495 0.24017493 -0.96515697 -5.6636943e+17
0.033125143 0.03093197 0.048105434 0.99767452 0.0434101 -0.0525444 -5.6636906e+17
-0.031379018 0.042808995 0.047164317 -0.90529829 0.42429772 0.020163741 -5.6636943e+17
-0.026617728 0.045106012 0.04846257 -0.83504152 0.55004203 -0.012624868 -5.6637081e+17
-0.019208403 0.047129121 0.048789047 -0.16573153 0.90376318 0.39464563 -5.6637071e+17
-0.011471967 0.047190476 0.04909173 -0.0001521254 0.99295527 -0.11849017 -5.6637071e+17
-0.0037496674 0.047359452 0.04884012 -2.1633599e-05 0.99950075 -0.031594474 -5.6637064e+17
0.0038981272 0.047345892 0.049101207 3.1634569e-05 0.99928874 0.037711192 -5.6637071e+17
0.011482171 0.047369327 0.049097273 9.6961456e-05 0.99525481 0.097302601 -5.6637067e+17
0.019141646 0.0473422 0.048631057 0.033849828 0.99004817 0.13659768 -5.6637067e+17
0.026968984 0.04622224 0.048265807 0.78425843 0.60408199 -0.14150517 -5.6637084e+17
0.032224134 0.043416265 0.047353517 0.90335715 0.3697063 -0.21740095 -5.6636957e+17
-0.030965505 -0.021916717 0.059332609 -0.75925583 0 0.65079224 -5.6636943e+17
-0.026117977 -0.025068298 0.059722334 -0.43245864 -0.27540636 0.8585633 -5.6636943e+17
-0.018826475 -0.027716981 0.060087178 -0.48642033 -0.75138557 -0.44588664 -5.6636943e+17
-0.011314105 -0.029551765 0.060606893 -0.33732536 -0.79785573 -0.4996376 -5.6636943e+17
-0.0035828485 -0.02698889 0.063228533 -0.20949768 -0.92150897 -0.32700452 -5.6637022e+17
0.0034868738 -0.026683494 0.063546658 0.12456329 -0.9181062 -0.37625122 -5.6637057e+17
0.011163923 -0.029400565 0.060469236 0.22513483 -0.50627357 -0.83246708 -5.6636957e+17
0.018953623 -0.028181423 0.060241375 0.43053186 -0.74661541 -0.50715643 -5.6636943e+17
0.026372951 -0.02492447 0.059963156 0.38394204 -0.35125142 0.85393852 -5.6636943e+17
0.031924751 -0.022226617 0.059448969 0.75891739 0 0.65118694 -5.6636943e+17
-0.031241706 -0.011024822 0.058831666 -0.77576917 0 0.63101679 -5.6636943e+17
-0.026577577 -0.010706439 0.059967611 -0.45948428 0 0.88818586 -5.6636943e+17
-0.019448446 -0.011466139 0.060206626 0 0 -1 -5.6636943e+17
-0.011395029 -0.010519726 0.067960545 -0.97688353 -0.17637347 -0.12079298 -5.6637029e+17
-0.0045976485 -0.019375142 0.071164966 -0.40811098 -0.91137409 0.053316209 -5.6636943e+17
0.0052625374 -0.019813916 0.070481643 0.27554673 -0.95597523 -0.10092293 -5.6636943e+17
0.012345376 -0.011686747 0.068488933 0.9616214 -0.26932582 -0.052420136 -5.6637105e+17
0.018457973 -0.0094693406 0.063742347 0.37749666 -0.0028372698 -0.92600662 -5.6637022e+17
0.027543467 -0.010739218 0.060623456 0.29454526 1.3463218e-05 0.95563745 -5.6636988e+17
0.032447357 -0.010020217 0.058882102 0.76903737 7.3653678e-07 0.63920385 -5.6636943e+17
-0.030739397 0.017552257 0.058826506 -0.75925583 0 0.65079224 -5.6636943e+17
-0.026738016 0.010365866 0.059776746 -0.47602817 0 0.87943 -5.6636943e+17
-0.019435015 0.010164185 0.059954353 0 0 -1 -5.6636943e+17
-0.01111924 0.0062833494 0.066832677 -0.81653875 0.42913449 -0.38614517 -5.6637067e+17
-0.0040543866 0.011261818 0.066519454 -0.27744353 0.85336244 -0.44135892 -5.6637033e+17
0.0042713941 0.011746421 0.066437691 0.16760549 0.8568238 -0.48760769 -5.6637012e+17
0.011971897 0.0070469715 0.067448251 0.75502974 0.53554106 -0.37831965 -5.6637077e+17
0.019576864 0.0093906773 0.061619546 0.062292892 0.011031823 -0.99799693 -5.663694e+17
0.027669365 0.010485529 0.060342163 -0.93039817 3.2310159e-05 0.36655053 -5.6636995e+17
0.032413431 0.010741684 0.058924958 0.71276212 3.8898788e-06 0.70140588 -5.6636943e+17
-0.031493127 0.026435375 0.058345675 -0.80734211 0 0.59008366 -5.6636943e+17
-0.02567349 0.031950627 0.059953645 -0.20968305 0.011149176 0.9777059 -5.6636943e+17
-0.018285075 0.031134831 0.060224328 0 0 -1 -5.6636943e+17
-0.011580646 0.030383823 0.060450763 0 0 -1 -5.6636943e+17
-0.0044689393 0.030704727 0.060429398 0 0 -1 -5.6636943e+17
0.0036277538 0.03126106 0.060744446 0 0 -1 -5.6636971e+17
0.011392418 0.031113178 0.060714662 0 0 -1 -5.6636943e+17
0.018873744 0.030859228 0.061083235 0 0 -1 -5.6636947e+17
0.027425952 0.031156294 0.060428947 0.30583197 0.090439089 0.94778037 -5.6637002e+17
0.032288708 0.030370085 0.058914829 0.69051754 0.030920077 0.72265446 -5.6636943e+17
-0.025587462 0.044080388 0.059531637 -0.3800489 0.42424625 0.82193547 -5.6636943e+17
-0.018437043 0.045790251 0.059734181 -0.02172862 0.43565688 0.89985049 -5.6636943e+17
-0.011402315 0.045438234 0.059878115 -2.1229926e-05 0.46368888 0.88599807 -5.6636943e+17
-0.0039224881 0.045232043 0.06005837 -2.475878e-05 0.49476552 0.86902648 -5.6636943e+17
0.0040032836 0.045071159 0.060224801 -1.6103846e-05 0.40012255 0.91646165 -5.6636943e+17
0.011401427 0.045344796 0.060043827 -2.8302502e-05 0.44279817 0.89662135 -5.6636943e+17
0.019196847 0.04552659 0.060172435 0.016605504 0.54440641 0.83865726 -5.6636943e+17
0.026502525 0.044497408 0.059568442 0.31680155 0.4484705 0.83576971 -5.6636943e+17
0.031972189 0.041364551 0.05886209 0.7114045 0.3497099 0.60959542 -5.6636943e+17
-0.0030275455 -0.021134388 0.079757735 -0.17565745 -0.97674596 0.12293036 -5.6636943e+17
0.0021531442 -0.021001682 0.079590298 0.14591487 -0.98154747 0.12358569 -5.6636943e+17
-0.011067489 -0.0089068078 0.086931989 -0.98148674 -0.19011334 0.023255447 -5.6637022e+17
-0.0039351387 -0.017957507 0.08725097 -0.35049048 -0.92947507 0.11503299 -5.6637043e+17
0.0039829919 -0.018549355 0.08765319 0.19346794 -0.97367793 0.120505 -5.6637033e+17
0.012293366 -0.010371564 0.086781077 0.94976294 -0.31057131 0.038676005 -5.6637043e+17
0.015742876 -0.0060705333 0.087474771 0.99999166 -0.0040182625 0.00075731141 -5.6636943e+17
-0.010766963 0.0057651834 0.08713007 -0.91526222 0.39990371 -0.048703708 -5.6637088e+17
-0.0040793163 0.012241717 0.087439962 -0.32047001 0.94053555 -0.11265826 -5.663704e+17
0.0037179084 0.012893743 0.086387865 0.15599097 0.98065412 -0.11825525 -5.6637043e+17
0.011962562 0.0069790753 0.087585792 0.84445608 0.53182042 -0.063725792 -5.6637095e+17
0.015604259 0.0028859079 0.088341698 0.99704516 0.076309815 -0.0088100536 -5.6636943e+17
-0.010853934 -0.0077639162 0.10589671 -0.9763068 -0.21495908 0.024851905 -5.6637084e+17
-0.0041359048 -0.015616745 0.10617992 -0.3609688 -0.92611092 0.10963606 -5.6637026e+17
0.0036474548 -0.016505869 0.10556287 0.17424418 -0.97783494 0.11609424 -5.6637029e+17
0.012102753 -0.0094702356 0.10636783 0.92688668 -0.3726857 0.044570994 -5.6637074e+17
0.015757795 -0.0048260163 0.10541239 0.99991393 -0.012879803 0.0024792231 -5.6636943e+17
-0.01104608 0.0081562568 0.10720867 -0.96453333 0.22638448 -0.13574024 -5.6637033e+17
-0.0041166972 0.014684434 0.104909 -0.31132773 0.87424433 -0.37252113 -5.6637019e+17
0.0038154335 0.015642142 0.1055584 0.14119536 0.86557096 -0.48046938 -5.6636998e+17
0.012250784 0.0092884153 0.10678929 0.90877014 0.39500493 -0.13456614 -5.6637029e+17
0.015676111 0.0055235708 0.10647114 0.99667662 0.073822744 -0.034435526 -5.6636943e+17
-0.0091148019 0.022425696 0.11214707 -0.62301147 0.62582511 -0.46925437 -5.6636943e+17
-0.0035463485 0.025084049 0.11186463 -0.29767889 -0.36779281 -0.88097429 -5.6636943e+17
0.0037083067 0.02533669 0.11196983 0.11011615 -0.47496736 -0.87308681 -5.6636943e+17
0.010002432 0.023692984 0.11299211 0.74239576 0.64964378 -0.16374232 -5.6636943e+17
-0.0018689632 -0.062217407 0.13430654 -0.16213271 -0.74406213 -0.64813924 -5.6636943e+17
0.0050874474 -0.062157661 0.13431872 0.14564487 -0.70362574 -0.69548428 -5.6636943e+17
-0.016656311 -0.047499716 0.13440634 -0.71110576 -0.094463922 -0.69671029 -5.6636943e+17
-0.011048104 -0.049089357 0.13222331 -0.47476798 -0.16721804 -0.86407948 -5.6637019e+17
-0.0037624841 -0.051417217 0.1306635 -0.20233177 -0.30562854 -0.93040478 -5.6637047e+17
0.0037025434 -0.051570732 0.13051789 0.071804151 -0.24527641 -0.96679038 -5.6637047e+17
0.011373231 -0.05003744 0.13179836 0.36193618 -0.26293787 -0.8943522 -5.663704e+17
0.018018998 -0.048248202 0.13343537 0.57685935 -0.09052711 -0.81181157 -5.6636943e+17
0.025470594 -0.043319415 0.13465662 0.077467144 0 -0.99699497 -5.6636943e+17
-0.016291741 -0.030317029 0.13362265 -0.66512924 0 -0.74672818 -5.6636943e+17
-0.011235096 -0.030985545 0.1316025 -0.49036977 0 -0.8715145 -5.6637053e+17
-0.0038192542 -0.030940434 0.12921004 -0.16960023 0 -0.98551297 -5.6637026e+17
0.0032962093 -0.030703582 0.12887396 0.046655968 9.0269987e-06 -0.99891102 -5.6637033e+17
0.011628099 -0.031015277 0.13096134 0.36637014 -1.5652504e-05 -0.93046916 -5.6637057e+17
0.01825719 -0.03103896 0.13328095 0.57494849 0 -0.81818962 -5.6636943e+17
0.02544315 -0.033352844 0.13456908 0.032935832 0.16579665 -0.98560977 -5.6636943e+17
-0.016945461 -0.010969569 0.1339418 -0.71929038 0 -0.69470954 -5.6636943e+17
-0.011267577 -0.0086857947 0.12712872 -0.89732128 -0.155908 -0.41292521 -5.6637105e+17
-0.0041367491 -0.014459107 0.12524118 -0.39388615 -0.87099808 -0.29362583 -5.6637019e+17
0.003804455 -0.015276006 0.12511975 0.19260953 -0.93499488 -0.29780221 -5.6637009e+17
0.012383984 -0.0098890103 0.12620871 0.90007931 -0.34687272 -0.26369771 -5.6637102e+17
0.017292928 -0.0076516704 0.12973218 0.79683387 -0.0034954543 -0.60418838 -5.6636961e+17
-0.017377529 0.014366525 0.12731341 -0.88512701 -0.039628405 -0.46365905 -5.6637005e+17
-0.011911193 0.0095350249 0.12494352 -0.98493981 0.010826446 -0.17255846 -5.6637033e+17
0.013623076 0.0092748618 0.12428941 0.99432731 0.018086594 -0.1048144 -5.6637084e+17
0.01766219 0.012164219 0.12676997 0.97201961 -0.060661744 -0.22693168 -5.6637077e+17
0.025862724 0.012323081 0.1346584 0.13071254 0 -0.99142033 -5.6636943e+17
-0.017401822 0.026565552 0.13009264 -0.76161808 0.25764069 -0.59460849 -5.6636943e+17
-0.011203949 0.028463379 0.12884229 -0.60258859 0.37634513 -0.70374089 -5.6637067e+17
-0.0042524096 0.031994149 0.12402828 -0.95759207 0.13396199 0.25509113 -5.6637091e+17
0.0046302807 0.033304151 0.12368656 0.65662378 0.088399291 0.74901992 -5.6637074e+17
0.011221417 0.028858822 0.12692286 0.73426455 0.46949872 -0.49033317 -5.6637095e+17
0.018420309 0.028025292 0.13099006 0.71777195 0.41036218 -0.5625 -5.6636943e+17
-0.017110527 0.048241846 0.13423742 -0.71322483 0.098519295 -0.69397712 -5.6636943e+17
-0.011068884 0.05049311 0.13213263 -0.47861078 0.12126496 -0.86961281 -5.6637022e+17
-0.0037896875 0.050921295 0.13026036 -0.21187243 0.28463492 -0.93492943 -5.6637053e+17
0.0036804075 0.050479107 0.12946203 0.11646917 0.40064263 -0.90880162 -5.6637057e+17
0.011535808 0.051480692 0.13217551 0.37714392 0.24551228 -0.89302081 -5.6637043e+17
0.017347597 0.048929654 0.13351835 0.52556193 0.12232783 -0.84191483 -5.6636943e+17
-0.010805272 0.063685976 0.13396622 -0.39798522 0.53873193 -0.74254668 -5.6636943e+17
-0.0036185773 0.064319335 0.13278182 -0.11135111 0.79613698 -0.59478301 -5.6636943e+17
0.0042450028 0.06408184 0.13258806 0.05662512 0.8075003 -0.587143 -5.6636943e+17
0.010579647 0.064360447 0.13342404 0.23265578 0.78228462 -0.57784265 -5.6636943e+17
0.017331794 0.0630766 0.13446596 0.45995611 0.2089998 -0.86299449 -5.6636943e+17
-0.017568711 -0.063145645 0.14980927 -0.72371364 -0.65570343 -0.21515505 -5.6636943e+17
-0.011369712 -0.065393716 0.14636861 -0.51245624 -0.83676195 -0.19292007 -5.6637043e+17
-0.003858044 -0.067049749 0.14486536 -0.20912807 -0.887995 -0.40954897 -5.663706e+17
0.0038103173 -0.067310683 0.14470714 0.061007552 -0.90187556 -0.42766637 -5.663706e+17
0.011392788 -0.066173136 0.14584179 0.36069423 -0.90738165 -0.2157734 -5.6637057e+17
0.01847613 -0.063978866 0.14867298 0.71629888 -0.67133456 -0.19033083 -5.6636978e+17
0.023733564 -0.062363371 0.15249872 0.72164696 -0.67792588 -0.14015037 -5.6636943e+17
-0.024829803 -0.047863387 0.14777309 -0.94762295 -0.10685588 -0.30098596 -5.6637071e+17
-0.019864174 -0.052344549 0.14327374 -0.76346868 -0.39640757 -0.50987899 -5.6637105e+17
-0.012390202 -0.056339201 0.13779144 -0.48819634 -0.37877542 -0.78625274 -5.663694e+17
-0.005219148 -0.059884522 0.13623716 -0.15900153 -0.39575753 -0.90448576 -5.6636943e+17
0.0038783401 -0.059404287 0.13592094 0.014166808 -0.098609202 -0.99502534 -5.6636943e+17
0.012286854 -0.058956694 0.13717631 0.22090466 -0.2726132 -0.93642038 -5.6636943e+17
0.019800968 -0.053617835 0.14068069 0.75044191 -0.37217507 -0.54618913 -5.6637077e+17
0.026493968 -0.049528748 0.14660111 0.90167564 -0.25488067 -0.34930903 -5.6637057e+17
0.031069303 -0.044984426 0.14675678 0.99954981 -0.02875918 0.0085478108 -5.6636943e+17
-0.025084179 -0.030928658 0.1460567 -0.96784371 0.07553225 -0.23994468 -5.6637088e+17
-0.020037694 -0.030533867 0.13993716 -0.63238192 0.029146371 -0.77410823 -5.6637071e+17
-0.013805931 -0.03105884 0.13628659 -0.64105129 0 -0.76749802 -5.6636943e+17
0.0147807 -0.026985923 0.13528471 0.47839007 0 -0.87814754 -5.6636943e+17
0.020012854 -0.030731875 0.13771826 0.65516406 0.012241499 -0.75538743 -5.6637002e+17
0.027506711 -0.030922314 0.14538954 0.9700371 0.12100368 -0.21068026 -5.6636943e+17
0.031128736 -0.031535495 0.14680448 0.98939258 0.072318815 -0.12598537 -5.6636943e+17
-0.025091184 -0.010689482 0.14850387 -0.96419686 2.3136903e-07 -0.26518756 -5.6637088e+17
-0.019909309 -0.010583895 0.14039892 -0.8017453 -0.0071491133 -0.59762299 -5.6637081e+17
-0.014417489 -0.0093913479 0.13660637 -0.79438573 0 -0.60741359 -5.6636943e+17
0.015000403 -0.0068581104 0.1358863 0.70713371 0.0035713357 0.70707077 -5.6636943e+17
0.020236939 -0.010585369 0.13791101 0.73471844 5.3725937e-05 -0.67837209 -5.6637033e+17
0.026777629 -0.01071735 0.146613 0.9319337 1.0076886e-06 -0.36262864 -5.6637074e+17
0.031355076 -0.0099137081 0.1518334 0.98919433 0 -0.14660999 -5.6636943e+17
-0.025213283 0.010953455 0.14661486 -0.97118521 -0.0089668082 -0.23815705 -5.6637102e+17
-0.020435752 0.0091799246 0.14041424 -0.75141728 -0.049850255 -0.65794158 -5.6637077e+17
-0.014113326 0.012538814 0.13587035 -0.83211094 0.013339797 -0.55444872 -5.6636943e+17
0.014725849 0.011483416 0.13533108 0.99950218 0.031487565 -0.0020045317 -5.6636943e+17
0.020405844 0.0095733944 0.13762347 0.64217377 -0.038428597 -0.76559532 -5.6637005e+17
0.027269877 0.010227599 0.14565529 0.96552676 -0.02093187 -0.25946075 -5.6636926e+17
0.03124938 0.011376495 0.14920174 0.97382736 0 -0.22728896 -5.6636943e+17
-0.025139283 0.030403342 0.14648709 -0.97018605 0.066520087 -0.23305389 -5.6637105e+17
-0.020142136 0.031584844 0.14031416 -0.68101871 0.21384653 -0.70034504 -5.6637071e+17
-0.012741795 0.03222901 0.13565569 -0.45324379 0.43546605 -0.77777851 -5.6636943e+17
0.014912605 0.027872786 0.13505134 0.45384064 0.31622779 -0.83308387 -5.6636943e+17
0.020267105 0.031532556 0.13754721 0.63117093 0.069571033 -0.77251732 -5.6637019e+17
0.027221458 0.030403271 0.14555129 0.95539278 0.13386124 -0.26326001 -5.6636937e+17
0.030958431 0.031132841 0.14741448 0.9934333 0.077721655 -0.083962046 -5.6636943e+17
-0.024958698 0.049874756 0.14925091 -0.94377398 0.15703724 -0.29091212 -5.6637071e+17
-0.019818006 0.052001603 0.14190425 -0.80873907 0.1862442 -0.55790168 -5.6637098e+17
-0.012825275 0.054104898 0.13662003 -0.56504858 0.27428448 -0.77813119 -5.6636943e+17
-0.0074905744 0.057100415 0.13520975 -0.45991486 0.20991036 -0.86279541 -5.6636943e+17
0.013184967 0.057470083 0.13576338 0.45474043 0.28257167 -0.84460896 -5.6636943e+17
0.020021735 0.051913507 0.13874039 0.70536065 0.22505292 -0.67217374 -5.6637071e+17
0.026461894 0.051125679 0.14732981 0.9087888 0.1962481 -0.36822489 -5.6637064e+17
0.031248152 0.047654748 0.15080267 0.98825228 0.04363209 -0.14647038 -5.6636943e+17
-0.024023332 0.063676402 0.15037653 -0.88975191 0.35546938 -0.28632689 -5.6636943e+17
-0.01822043 0.067062907 0.14736246 -0.54643941 0.77161503 -0.32559833 -5.6637057e+17
-0.01169937 0.071081348 0.1449741 -0.54480529 0.65863132 -0.51902986 -5.6637095e+17
-0.003970087 0.072078191 0.14117627 -0.2032111 0.70689732 -0.67749643 -5.663706e+17
0.0037316007 0.072888322 0.14134344 0.063886672 0.72157782 -0.68937939 -5.6637053e+17
0.011674169 0.071587116 0.14285359 0.40232286 0.6936686 -0.59746146 -5.6637081e+17
0.018746236 0.06926693 0.14690533 0.60479051 0.70227909 -0.37554303 -5.6637088e+17
0.025166126 0.064208835 0.14923094 0.68949556 0.68274409 -0.24177758 -5.6636943e+17
-0.016641071 0.092180498 0.15176721 -0.93962663 0.10313872 -0.32628861 -5.6636943e+17
-0.011756725 0.092716053 0.14729482 -0.77123362 0.061992403 -0.63352638 -5.6637098e+17
-0.0040081344 0.092584059 0.14216745 -0.31183437 0.0022952473 -0.95013368 -5.663706e+17
0.0032446994 0.091672674 0.14162481 0.058815606 -0.10720823 -0.99249542 -5.6637074e+17
0.011728995 0.092773505 0.14424863 0.56570572 -0.0013194218 -0.82460612 -5.6637084e+17
0.018064408 0.092497677 0.15042351 0.89422786 0.048465442 -0.44498038 -5.6637074e+17
-0.015799304 0.1064449 0.15277222 -0.94492948 0.15483382 -0.28833082 -5.6636943e+17
-0.010920176 0.11211575 0.14950551 -0.83467191 0.20513432 -0.51111907 -5.6637095e+17
-0.0040226365 0.11328814 0.14404346 -0.42864484 0.21489063 -0.8775453 -5.6637088e+17
0.0041843909 0.11319792 0.1425433 0.10771573 0.18796599 -0.97625101 -5.6637074e+17
0.011982964 0.1134811 0.14663528 0.65333509 0.2006993 -0.72998154 -5.6637098e+17
0.017005285 0.11102518 0.1510708 0.89442545 0.15365563 -0.41999176 -5.6637029e+17
-0.0092214048 0.1241019 0.15191253 -0.65292603 0.69145948 -0.30914634 -5.6636943e+17
-0.0033451486 0.12643485 0.1502793 -0.48182449 0.7144447 -0.50735974 -5.6637002e+17
0.0037124867 0.12765776 0.14951821 0.089240141 0.79525059 -0.59967721 -5.663704e+17
0.01049671 0.12580425 0.15074952 0.56002212 0.69285661 -0.45423001 -5.6636943e+17
0.016226649 0.12434804 0.15404087 0.72510666 0.68287593 -0.088887103 -5.6636943e+17
-0.018260239 -0.063660845 0.16254038 -0.76100111 -0.63658756 0.12503435 -5.6637022e+17
-0.011792748 -0.067182831 0.16421592 -0.5175063 -0.84816104 0.11318137 -5.6637071e+17
-0.0039082957 -0.069898508 0.16377911 -0.18080346 -0.97172892 0.1518323 -5.6637067e+17
0.0040136063 -0.070239842 0.16348875 0.07496468 -0.98291695 0.16809092 -5.663706e+17
0.011873159 -0.068306744 0.16451459 0.34932476 -0.93661296 -0.026988799 -5.6637067e+17
0.019118369 -0.064599589 0.16345584 0.76954257 -0.63192993 0.092026331 -5.663706e+17
0.024001136 -0.062223196 0.16064942 0.69650704 -0.71607769 0.045943748 -5.6636943e+17
-0.025261234 -0.049312197 0.16284065 -0.98556161 -0.10189316 0.13522592 -5.6637047e+17
-0.020985968 -0.054575786 0.16570619 -0.86526173 -0.40805963 0.29122075 -5.6637064e+17
0.021924615 -0.055951692 0.1685677 0.86932373 -0.39790958 0.29316252 -5.6636943e+17
0.027051751 -0.050874654 0.16392887 0.95979589 -0.20592123 0.19075714 -5.6636858e+17
0.031203769 -0.046287891 0.15978643 0.99229783 0.12096597 0.026688149 -5.6636943e+17
-0.025756283 -0.029907973 0.16384952 -0.99217898 0.028687764 0.1214817 -5.6636964e+17
-0.021485792 -0.032657396 0.16799271 -0.86300522 -0.50512004 -0.0087023322 -5.6636943e+17
0.022245334 -0.038283706 0.16127124 0.12269299 -0.99227786 0.018194627 -5.6636943e+17
0.027990697 -0.030239118 0.16513538 0.99108696 0.0085568298 0.13294137 -5.6637022e+17
0.031203719 -0.029352944 0.16080169 0.99989057 0 0.014793834 -5.6636943e+17
-0.025813896 -0.010377037 0.16321543 -0.98979264 0 0.14251482 -5.6636885e+17
-0.021650117 -0.009641028 0.17131568 -0.90681243 0 0.42153427 -5.6636943e+17
0.028141962 -0.01026071 0.16468368 0.98374313 0 0.17958137 -5.6636971e+17
0.031236494 -0.010525307 0.16038716 0.99925065 0 0.038704425 -5.6636943e+17
-0.025753288 0.010184237 0.16314426 -0.99446213 0 0.10509552 -5.6636888e+17
-0.021989807 0.0085799005 0.17047247 -0.98752218 -0.03847177 0.15270856 -5.6636943e+17
0.02813009 0.010084076 0.16471241 0.99244738 -0.0065673413 0.12249487 -5.6636947e+17
0.031269401 0.01020497 0.16005838 0.99970472 0 0.024298823 -5.663694e+17
-0.025740851 0.030780649 0.1631971 -0.99300814 0.046371054 0.10855646 -5.6636902e+17
-0.0220998 0.030896524 0.17071331 -0.96957028 0.22360361 0.09967389 -5.6636943e+17
0.028088218 0.030793909 0.16481693 0.98159951 0.1157157 0.15189542 -5.6636978e+17
0.03128149 0.030863645 0.16035543 0.99937195 0 0.035435956 -5.6636954e+17
-0.025366619 0.050699294 0.16289306 -0.97977883 0.15615289 0.12509875 -5.6636933e+17
-0.021747027 0.054307755 0.16891006 -0.91684431 0.22527878 0.32961497 -5.6636992e+17
0.022640893 0.059833925 0.17173816 0.88691217 0.17903963 0.42583057 -5.6636943e+17
0.027616862 0.051538326 0.16436103 0.96304786 0.19916928 0.18130219 -5.6636878e+17
0.031273726 0.048685137 0.16016115 0.98581153 0.16489817 0.031372219 -5.6636943e+17
-0.024291234 0.064354353 0.16115455 -0.76321024 0.64412224 0.051152188 -5.6636943e+17
-0.018385427 0.069411136 0.16260752 -0.74484199 0.65845197 0.10794163 -5.6637105e+17
-0.012700111 0.073569201 0.16764039 -0.68705302 0.54455721 0.48105672 -5.6637064e+17
-0.0048222849 0.078219682 0.16769552 -0.3058089 0.92932397 0.2069732 -5.6636943e+17
0.0041900249 0.079453841 0.16745409 0.1112038 0.97304291 0.20204251 -5.6636943e+17
0.012885842 0.074951522 0.16937689 0.45322832 0.76051807 0.46496916 -5.6636947e+17
0.019150749 0.072347976 0.16343614 0.85502738 0.46875316 0.22180794 -5.6637088e+17
0.025769701 0.064587682 0.16283202 0.68674314 0.71805823 0.11303201 -5.663705e+17
-0.016915025 0.091220073 0.1609222 -0.98701835 0.10149427 0.12447333 -5.6637077e+17
-0.012603788 0.092938706 0.16677199 -0.86985409 0.037875038 0.49185294 -5.6637091e+17
-0.0045377198 0.088594213 0.16743317 -0.20068821 -0.85083395 0.48559842 -5.6636943e+17
0.0038531232 0.083848238 0.16557811 -0.31193331 -0.93726337 -0.15567571 -5.6636943e+17
0.012665563 0.092107646 0.17017742 0.61648023 -0.134027 0.7758795 -5.6637033e+17
0.018694948 0.092367619 0.16303977 0.96590865 0.037844755 0.25610194 -5.6636909e+17
0.023471842 0.088239156 0.15959001 0.99829471 0.038804967 0.043610692 -5.6636943e+17
-0.015966317 0.10608419 0.15925726 -0.98452824 0.16821712 0.049060777 -5.6636943e+17
-0.011473903 0.11306898 0.16316853 -0.912889 0.26016578 0.31455898 -5.6636851e+17
-0.0042826287 0.11508171 0.17124215 -0.46234643 0.31292903 0.82964516 -5.663706e+17
0.0047836523 0.11612984 0.17201871 0.18282863 0.28447711 0.9410879 -5.6636971e+17
0.012249158 0.11417743 0.1689247 0.65169096 0.26626024 0.71021438 -5.6637095e+17
0.01748387 0.11179835 0.16097261 0.96951443 0.17464095 0.17187877 -5.6637033e+17
-0.0093030808 0.12452088 0.15909998 -0.7065447 0.70283192 0.082594961 -5.6636943e+17
-0.0035752729 0.12756716 0.16172494 -0.53447771 0.78961933 0.30138826 -5.6637081e+17
0.0039028849 0.12871307 0.16360757 0.083156645 0.89431202 0.43964866 -5.6637074e+17
0.010777147 0.12669289 0.16113548 0.64440995 0.72920579 0.23020561 -5.6637067e+17
0.016181769 0.12404838 0.15871671 0.71939856 0.69322455 0.04365227 -5.6636943e+17
-0.015493765 -0.062816769 0.17552637 -0.61368179 -0.67596847 0.40799674 -5.6636943e+17
-0.010931014 -0.063594095 0.17643182 -0.45539075 -0.7373237 0.49897194 -5.6636943e+17
-0.003740272 -0.064766131 0.17837653 -0.19777204 -0.74863672 0.63279492 -5.6636985e+17
0.0037792416 -0.06511993 0.17828205 0.056482941 -0.77625018 0.62788957 -5.6637005e+17
0.011413355 -0.064034931 0.17726569 0.36620829 -0.76061416 0.53605747 -5.6636943e+17
0.017157434 -0.062547632 0.17556246 0.6876322 -0.69468623 0.21112299 -5.6636943e+17
-0.02462019 -0.044633597 0.17726919 -0.93884546 -0.076883025 0.33564609 -5.6636943e+17
-0.018665425 -0.05060035 0.17837939 -0.73275441 -0.24236791 0.63586843 -5.6637084e+17
-0.01148517 -0.051565845 0.18343467 -0.4651188 -0.24203962 0.85151708 -5.6637081e+17
-0.003974013 -0.051533364 0.18650301 -0.19473661 -0.26228321 0.94513762 -5.6637074e+17
0.003930124 -0.051357899 0.18720834 0.081915617 -0.26049557 0.96199375 -5.6637074e+17
0.011774 -0.051695548 0.1849847 0.35332331 -0.23862483 0.90455556 -5.6637081e+17
0.019133806 -0.051627275 0.18015434 0.66286409 -0.25417265 0.70427799 -5.6637088e+17
0.025746832 -0.046766248 0.17741224 0.78455657 -0.12928452 0.60642922 -5.6637019e+17
0.030724853 -0.04337284 0.17679518 0.99145448 0 -0.13045326 -5.6636943e+17
-0.024816776 -0.033297841 0.17725851 -0.94880992 0.16697009 0.2681058 -5.6637026e+17
-0.018857356 -0.030387817 0.1800012 -0.6005882 0.084803782 0.79504848 -5.6637084e+17
-0.011522465 -0.03045658 0.18519802 -0.48597339 0 0.87397361 -5.6637077e+17
-0.0040417118 -0.031136174 0.18808408 -0.18910198 0 0.98195744 -5.663706e+17
0.0035641901 -0.030635074 0.18860157 0.057066493 0 0.99837041 -5.6637071e+17
0.011751167 -0.030921847 0.1865894 0.38135061 -4.0078962e-06 0.92443049 -5.6637077e+17
0.019229388 -0.030430418 0.18186624 0.56993884 0.024723522 0.82131505 -5.6637081e+17
0.026326789 -0.031488672 0.17787436 0.78613269 0.1704348 0.59409374 -5.6637081e+17
0.030799076 -0.033914037 0.17691234 0.94052726 0.31622776 0.12413055 -5.6636943e+17
-0.02388536 -0.0097319493 0.17493419 -0.90275896 0 0.43014678 -5.6636943e+17
-0.019116664 -0.010413223 0.17878176 -0.7647593 0 0.64431608 -5.6637095e+17
-0.011479568 -0.01032955 0.1851805 -0.49264488 0 0.87023044 -5.6637077e+17
-0.003962703 -0.010138022 0.18804576 -0.18822204 0 0.98212653 -5.6637064e+17
0.0036319476 -0.010412694 0.18853074 0.064681806 0 0.99790597 -5.6637071e+17
0.011694455 -0.010208131 0.18659745 0.37588239 -6.3131552e-06 0.92666739 -5.6637074e+17
0.019366326 -0.010450638 0.18179604 0.65718067 -1.754139e-06 0.7537331 -5.6637088e+17
0.024847297 -0.010443646 0.17607041 0.84083128 0 0.54129732 -5.6637029e+17
-0.024792055 0.012560176 0.1771116 -0.97704101 -0.037843056 0.20966324 -5.6637005e+17
-0.019020544 0.0098250564 0.17958893 -0.57259876 -0.032790203 0.81917965 -5.6637084e+17
-0.011537154 0.0099980487 0.18446548 -0.4110499 0.11706374 0.90406525 -5.6637071e+17
-0.0041592638 0.010331233 0.18734173 -0.18527634 0.21353334 0.95920604 -5.6637071e+17
0.0039300341 0.01039883 0.18782283 0.074694857 0.22016329 0.97259897 -5.6637071e+17
0.011791324 0.010295433 0.18623559 0.30250478 0.052980077 0.95167434 -5.6637074e+17
0.019002618 0.0096382434 0.18196328 0.57430416 0.0071933339 0.81861043 -5.6637074e+17
0.026111068 0.011489678 0.17780647 0.76120043 -0.061110556 0.64563102 -5.6637077e+17
0.031315506 0.0092943311 0.17628384 0.99145448 0 -0.13045326 -5.6636943e+17
-0.024875591 0.027934119 0.1770473 -0.97637516 0.17992647 0.11965832 -5.6637016e+17
-0.019264964 0.030960675 0.17961915 -0.61701572 0.10155445 0.78037059 -5.6637084e+17
-0.011652351 0.031293254 0.18432322 -0.47502348 1.0665492e-05 0.87997311 -5.6637071e+17
-0.0039440719 0.031074435 0.18725415 -0.17654143 -0.059859261 0.98247135 -5.6637067e+17
0.0037225615 0.031159785 0.18779404 0.05799818 -0.078805894 0.99520141 -5.6637071e+17
0.011843105 0.030686695 0.18593214 0.3101815 -0.047715615 0.9494791 -5.6637074e+17
0.019079305 0.031164715 0.18180665 0.57592118 0.04536311 0.81624568 -5.6637074e+17
0.026145613 0.029482748 0.17793998 0.73805445 0.20985681 0.64127666 -5.6637081e+17
0.030829161 0.030726135 0.17441481 0.92346406 0 -0.38368499 -5.6636943e+17
-0.023512458 0.047215573 0.17521876 -0.8955965 0.12284434 0.42756993 -5.6636943e+17
-0.018769911 0.050606135 0.17838109 -0.76373106 0.14901946 0.62809879 -5.6637084e+17
-0.011587862 0.05101065 0.18419617 -0.51189572 0.17406435 0.84122789 -5.6637088e+17
-0.0038961838 0.051689096 0.18704899 -0.20028044 0.19286874 0.96056724 -5.6637064e+17
0.0038333128 0.051221143 0.18777059 0.085236914 0.17379917 0.98108536 -5.6637074e+17
0.011726922 0.051230431 0.18571013 0.38210762 0.17544523 0.90731078 -5.6637074e+17
0.019311916 0.051304754 0.18060032 0.66657192 0.19705348 0.71892405 -5.6637091e+17
0.024712769 0.049736347 0.17590967 0.84356201 0.16251591 0.51185113 -5.6636995e+17
-0.017761549 0.064045355 0.17625369 -0.53861314 0.7238065 0.43127736 -5.6636943e+17
-0.011116793 0.066638954 0.17891267 -0.33881921 0.80202502 0.49189168 -5.6637009e+17
-0.0039990605 0.069664046 0.17911096 -0.2436434 0.51307225 0.82303995 -5.6637077e+17
0.0039106831 0.069276676 0.17997268 0.075195141 0.585419 0.80723625 -5.6637067e+17
0.011111654 0.068955339 0.17852749 0.33800331 0.65752393 0.67336172 -5.663706e+17
0.018709771 0.065248586 0.17760774 0.42505756 0.78714103 0.44691738 -5.6636964e+17
0.023961216 0.063967094 0.17520472 0.8146745 0.31495029 0.48694128 -5.6636943e+17
-0.0091162156 0.090495452 0.17511927 -0.58621401 0.091586225 0.80496281 -5.6636943e+17
-0.0036020291 0.092312485 0.17611791 -0.28675348 0.086479507 0.95409316 -5.6637064e+17
0.0037203063 0.092702001 0.17672488 0.093566775 0.072482519 0.99297106 -5.6637067e+17
0.010284157 0.091723606 0.17546751 0.44876426 0.072400562 0.89071256 -5.6637019e+17
0.015889376 0.089396827 0.17360204 0.60710382 0.068271078 0.79168427 -5.6636943e+17
-0.0086482754 0.1055792 0.17416528 -0.60015821 0.16617912 0.78242868 -5.6636943e+17
-0.0028598926 0.10865877 0.17472996 -0.291253 0.16057026 0.94307417 -5.6636943e+17
0.003808514 0.10978737 0.1748493 0.070785031 0.17003623 0.98289222 -5.6637002e+17
0.009775091 0.11007281 0.17432036 0.41325474 0.1641822 0.89569235 -5.6636943e+17
